0.142501,0.153569,0.161594,0.150802,0.161594,0.163531,0.164914,0.160487,0.160764,0.168788,0.172108,0.167681,0.164914,0.153016,0.137797,0.151079,0.155230,0.141118,0.132817,0.123132,0.128943,0.130603,0.132817,0.138628,0.144162,0.150802,0.155783,0.161317,0.159103,0.153846,0.152739,0.140011,0.139181,0.133924,0.129773,0.127836,0.122025,0.128390,0.145268,0.146099,0.143885,0.135307,0.131433,0.127283,0.126176,0.133370,0.136137,0.126729,0.126729,0.128943,0.136967,0.139458,0.154953,0.159380,0.154400,0.152186,0.152463,0.152186,0.152186,0.159103,0.155230,0.148866,0.143055,0.144162,0.149142,0.147205,0.146652,0.144162,0.139181,0.135307,0.142778,0.140564,0.136967,0.138351,0.140011,0.143055,0.143885,0.143055,0.143055,0.144162,0.147759,0.152463,0.155506,0.157720,0.159934,0.157443,0.153016,0.149142,0.148312,0.148035,0.148866,0.149696,0.150526,0.151909,0.153293,0.157167,0.156060,0.157167,0.158273,0.159103,0.162701,0.166298,0.171555,0.172662,0.170725,0.170725,0.169065,0.170448,0.168511,0.169065,0.168235,0.168511,0.168788,0.172108,0.174599,0.176812,0.185667,0.187050,0.192584,0.194521,0.199225,0.206143,0.211400,0.217211,0.219148,0.223298,0.226065,0.226895,0.226342,0.226342,0.228279,0.234090,0.245434,0.255396,0.260376,0.264527,0.268677,0.270891,0.273658,0.277532,0.280852,0.285003,0.287493,0.286663,0.284726,0.283343,0.280576,0.273935,0.265357,0.258716,0.254012,0.251245,0.245711,0.240730,0.233260,0.229109,0.223575,0.219978,0.218318,0.212230,0.208080,0.203099,0.198395,0.192584,0.184560,0.179026,0.176259,0.179579,0.180133,0.180963,0.182900,0.187604,0.193414,0.200055,0.202546,0.210570,0.230493,0.251245,0.238240,0.224405,0.234643,0.266740,0.265357,0.232983,0.215827,0.195351,0.172108,0.180686,0.186220,0.197565,0.224682,0.252075,0.271998,0.310183,0.288323,0.272274,0.247371,0.224128,0.233813,0.234643,0.214721,0.204759,0.200885,0.218594,0.205589,0.201439,0.196735,0.189541,0.192031,0.200885,0.194521,0.182623,0.172662,0.167405,0.173492,0.172385,0.167405,0.165468,0.169065,0.177642,0.182900,0.185667,0.189264,0.186774,0.180686,0.180410,0.185390,0.190647,0.193414,0.190924,0.191478,0.186220,0.182900,0.176259,0.173492,0.174599,0.171555,0.167958,0.168788,0.170448,0.181516,0.182346,0.184560,0.196735,0.185113,0.177366,0.170448,0.162977,0.164361,0.175706,0.184837,0.184283,0.182346,0.165191,0.163807,0.161040,0.160210,0.150526,0.144162,0.142225,0.143331,0.151356,0.143055,0.146652,0.147759,0.161871,0.161871,0.156613,0.161040,0.159380,0.166298,0.183177,0.192031,0.210017,0.214997,0.205313,0.197288,0.201992,0.191478,0.163254,0.148035,0.140564,0.137797,0.135030,0.135030,0.144715,0.147205,0.144715,0.149696,0.154676,0.157443,0.150802,0.169065,0.172108,0.179579,0.189541,0.212230,0.190647,0.159380,0.159657,0.180133,0.174045,0.164361,0.164084,0.198949,0.215827,0.192308,0.168788,0.146375,0.151909,0.167958,0.159380,0.144162,0.133647,0.156890,0.180963,0.189264,0.184837,0.168788,0.161317,0.146652,0.147759,0.139181,0.123686,0.109851,0.112341,0.128113,0.154400,0.153016,0.128666,0.105147
0.163531,0.175706,0.167405,0.159657,0.154400,0.157443,0.163254,0.166298,0.174045,0.166574,0.165468,0.167128,0.152186,0.148866,0.136691,0.143885,0.138904,0.131987,0.130327,0.125069,0.123962,0.126176,0.128943,0.131433,0.134200,0.136414,0.141948,0.145545,0.140288,0.141671,0.138351,0.134754,0.128390,0.125069,0.123132,0.120919,0.130603,0.137521,0.140564,0.130603,0.126176,0.125346,0.124516,0.125069,0.124516,0.125623,0.125069,0.123686,0.124792,0.124239,0.125623,0.127283,0.128390,0.131710,0.133924,0.133924,0.136414,0.137797,0.143331,0.146099,0.140564,0.136691,0.135584,0.134200,0.132263,0.132540,0.132540,0.132540,0.134200,0.135584,0.140011,0.140011,0.140564,0.142778,0.143885,0.144992,0.144715,0.144162,0.145822,0.147205,0.148589,0.150249,0.154953,0.157167,0.157443,0.157443,0.154676,0.150526,0.150249,0.150526,0.151356,0.153293,0.154676,0.156336,0.154953,0.155506,0.157720,0.157997,0.158273,0.161040,0.164361,0.168235,0.177919,0.182623,0.181240,0.177642,0.175429,0.171832,0.170172,0.169895,0.170448,0.172108,0.173492,0.177919,0.182070,0.180133,0.181793,0.182346,0.187050,0.192584,0.200055,0.209463,0.216934,0.221915,0.225789,0.228556,0.229939,0.231599,0.232983,0.232706,0.234643,0.239900,0.245158,0.251799,0.257333,0.262590,0.266740,0.269784,0.273658,0.276702,0.279745,0.282512,0.286663,0.286386,0.283066,0.280576,0.276702,0.270891,0.264527,0.260100,0.255949,0.250968,0.246541,0.241561,0.232983,0.229939,0.226342,0.223298,0.221361,0.211400,0.207250,0.201439,0.196735,0.186497,0.179579,0.176536,0.175152,0.175706,0.175429,0.177919,0.180133,0.182623,0.183730,0.193138,0.193414,0.199502,0.211400,0.235196,0.230216,0.206973,0.212230,0.225235,0.246265,0.222191,0.202822,0.192584,0.171278,0.175982,0.191754,0.210570,0.222745,0.249862,0.283343,0.309076,0.285003,0.252075,0.249862,0.240454,0.220255,0.208356,0.211123,0.214444,0.193414,0.191201,0.196182,0.191754,0.184560,0.182900,0.185944,0.186220,0.189541,0.178473,0.170172,0.164361,0.170725,0.165744,0.163531,0.162147,0.165468,0.167681,0.170725,0.174322,0.179303,0.185667,0.186220,0.183177,0.183177,0.185113,0.186774,0.182900,0.182346,0.181516,0.179579,0.175982,0.172939,0.174875,0.177089,0.174599,0.180963,0.175982,0.176259,0.181240,0.192584,0.199502,0.193414,0.179026,0.179856,0.175152,0.178749,0.182346,0.192031,0.201162,0.199502,0.194798,0.183730,0.176536,0.171278,0.162701,0.150802,0.144715,0.144715,0.141395,0.142778,0.143885,0.147482,0.167681,0.181793,0.174322,0.186220,0.188711,0.174045,0.166298,0.172939,0.190924,0.191754,0.200332,0.196182,0.193691,0.199779,0.181240,0.156336,0.144992,0.139181,0.133924,0.133094,0.154400,0.164084,0.147482,0.145822,0.146099,0.145822,0.165744,0.190371,0.205589,0.211123,0.215551,0.208910,0.206696,0.181240,0.151633,0.155506,0.158273,0.146929,0.163254,0.198672,0.217764,0.185667,0.180133,0.168511,0.173492,0.197012,0.190094,0.172939,0.157167,0.141118,0.163531,0.172108,0.169065,0.156060,0.141118,0.132263,0.130603,0.123962,0.115938,0.117875,0.146652,0.149419,0.157997,0.143331,0.122025,0.100996
0.171555,0.176536,0.173769,0.161594,0.166298,0.169341,0.165468,0.166851,0.161871,0.158827,0.146375,0.147759,0.140564,0.136691,0.133370,0.135584,0.127559,0.125069,0.125623,0.121472,0.122025,0.122856,0.122302,0.124792,0.127836,0.132817,0.131710,0.137797,0.130603,0.134477,0.126729,0.123962,0.122579,0.119535,0.125623,0.128666,0.129220,0.126176,0.123132,0.122856,0.122856,0.123132,0.123962,0.123962,0.123686,0.122302,0.124516,0.123409,0.123409,0.123962,0.124516,0.125069,0.125069,0.125899,0.127283,0.129773,0.130880,0.130880,0.130327,0.130603,0.130327,0.131157,0.131433,0.131157,0.131433,0.131433,0.131710,0.132263,0.133924,0.135307,0.136967,0.139458,0.142501,0.146929,0.149972,0.150802,0.153569,0.151079,0.148589,0.148866,0.150249,0.151633,0.152739,0.154400,0.156060,0.156060,0.155783,0.154953,0.153569,0.154676,0.158827,0.157720,0.160210,0.160210,0.158550,0.157720,0.160487,0.162147,0.162701,0.163807,0.172385,0.166851,0.167958,0.169341,0.170448,0.174045,0.178473,0.180410,0.174875,0.172939,0.174045,0.173215,0.175429,0.180133,0.188987,0.195628,0.197012,0.197012,0.198949,0.200609,0.201162,0.211954,0.222468,0.229662,0.232429,0.233813,0.232706,0.233260,0.236580,0.238517,0.237963,0.242944,0.247095,0.252352,0.257333,0.261483,0.266187,0.271444,0.274488,0.278085,0.280576,0.282512,0.285279,0.286110,0.284449,0.280299,0.275595,0.271168,0.267017,0.261483,0.257333,0.251799,0.246818,0.234920,0.235750,0.234643,0.232153,0.227172,0.226619,0.219148,0.210293,0.196182,0.188434,0.184283,0.179579,0.178473,0.174875,0.172662,0.172108,0.176259,0.177366,0.179303,0.179026,0.182346,0.186220,0.192031,0.193138,0.200609,0.210847,0.201439,0.192584,0.212230,0.226895,0.234643,0.218594,0.205866,0.181793,0.171002,0.186497,0.211677,0.221638,0.236303,0.259823,0.274488,0.258163,0.238240,0.219978,0.239347,0.239900,0.229939,0.226895,0.220808,0.211954,0.201716,0.186497,0.183730,0.176812,0.177089,0.177642,0.180963,0.180963,0.175706,0.169895,0.165468,0.164361,0.163531,0.160487,0.165191,0.169618,0.175982,0.174045,0.172108,0.174875,0.181240,0.187050,0.188711,0.186497,0.191754,0.187880,0.185944,0.182070,0.180410,0.176812,0.183177,0.186774,0.186774,0.188711,0.183177,0.185944,0.187880,0.195628,0.194521,0.195351,0.204759,0.197565,0.189541,0.204206,0.201992,0.196182,0.191201,0.190094,0.181516,0.177366,0.177089,0.177642,0.169065,0.163531,0.155783,0.147759,0.149142,0.150802,0.139458,0.142778,0.149696,0.145822,0.160210,0.183453,0.199502,0.218318,0.214997,0.190371,0.186774,0.175982,0.175982,0.180410,0.203652,0.202546,0.175429,0.173215,0.182346,0.175152,0.148866,0.138351,0.134200,0.132540,0.145822,0.160487,0.144992,0.141671,0.140841,0.149419,0.164914,0.171832,0.188987,0.198395,0.201162,0.188157,0.205866,0.196458,0.167128,0.144438,0.140564,0.142501,0.161871,0.190094,0.205866,0.172385,0.172385,0.177089,0.200885,0.201439,0.199502,0.192031,0.168511,0.145545,0.152463,0.159380,0.175706,0.154953,0.153016,0.149696,0.140564,0.122856,0.118152,0.138628,0.153293,0.149972,0.139181,0.118428,0.102103,0.115108
0.166574,0.170172,0.166021,0.170725,0.171278,0.176536,0.162424,0.159657,0.152463,0.146375,0.138904,0.133924,0.132540,0.133924,0.127283,0.125899,0.124239,0.122856,0.121195,0.119258,0.120642,0.122025,0.121472,0.122025,0.125069,0.124239,0.123686,0.124239,0.126453,0.124792,0.119812,0.119812,0.118982,0.122025,0.123962,0.122579,0.120365,0.119812,0.120919,0.121195,0.122579,0.122579,0.123409,0.123409,0.122579,0.120919,0.121472,0.122302,0.123132,0.123409,0.123962,0.125069,0.125069,0.125899,0.128943,0.129496,0.128943,0.127836,0.127559,0.128113,0.129220,0.129773,0.130050,0.130327,0.131157,0.132263,0.133370,0.137244,0.138074,0.138074,0.138904,0.139458,0.142778,0.146375,0.151356,0.153293,0.155506,0.157997,0.158827,0.159934,0.158550,0.153293,0.156060,0.159657,0.161040,0.162424,0.161594,0.159934,0.158827,0.157720,0.159380,0.162147,0.163531,0.162424,0.161594,0.162701,0.164638,0.168235,0.174599,0.163807,0.176259,0.177642,0.180410,0.182623,0.183730,0.175706,0.180410,0.187327,0.184007,0.179303,0.182070,0.180963,0.177366,0.177089,0.179856,0.183453,0.195075,0.206973,0.215827,0.230493,0.227726,0.242944,0.232429,0.236027,0.237687,0.237687,0.237410,0.236580,0.237963,0.237133,0.236857,0.241007,0.245434,0.251245,0.252905,0.259270,0.266740,0.270891,0.273105,0.278362,0.282236,0.284173,0.285279,0.288323,0.292750,0.293581,0.286110,0.279469,0.276148,0.270614,0.266740,0.261206,0.242114,0.241837,0.239900,0.239347,0.237133,0.244328,0.260100,0.260653,0.239347,0.218594,0.206143,0.188711,0.180410,0.179303,0.179579,0.177089,0.177642,0.171002,0.173215,0.174322,0.176259,0.176812,0.180963,0.177366,0.183177,0.189817,0.189264,0.184560,0.200055,0.218041,0.223575,0.239347,0.220255,0.195075,0.180686,0.166298,0.183453,0.193691,0.215551,0.244051,0.274488,0.271721,0.253182,0.222468,0.210570,0.224682,0.236580,0.231323,0.230493,0.231046,0.231046,0.224128,0.196182,0.178473,0.174045,0.170172,0.175429,0.177366,0.173492,0.170725,0.169065,0.166298,0.161040,0.160764,0.161317,0.167958,0.171832,0.179856,0.180410,0.176259,0.175982,0.179579,0.184560,0.193691,0.191754,0.199502,0.193968,0.192861,0.191754,0.182900,0.185113,0.197288,0.205036,0.205313,0.204759,0.199225,0.201162,0.201992,0.204206,0.207526,0.206419,0.206973,0.206696,0.211954,0.210017,0.195905,0.185667,0.179856,0.182900,0.175429,0.171002,0.162424,0.159657,0.155230,0.159103,0.157720,0.166574,0.157167,0.148866,0.141948,0.141395,0.155230,0.142778,0.163254,0.193138,0.211123,0.219701,0.231876,0.216934,0.198672,0.192031,0.194245,0.191754,0.208356,0.216381,0.201162,0.177642,0.154400,0.148866,0.145545,0.136967,0.133370,0.131710,0.137521,0.138351,0.136691,0.138904,0.148035,0.146099,0.151909,0.161594,0.168788,0.178196,0.178749,0.179026,0.207250,0.200055,0.167405,0.157997,0.160210,0.147482,0.138074,0.159934,0.178196,0.149419,0.158550,0.169065,0.179856,0.183730,0.181793,0.168788,0.154123,0.150526,0.151356,0.162424,0.185667,0.177919,0.161317,0.140841,0.128943,0.133370,0.131157,0.132540,0.125623,0.118705,0.112064,0.114555,0.124792,0.138074
0.157443,0.160210,0.168235,0.175429,0.163531,0.162147,0.153293,0.144162,0.138074,0.134477,0.131433,0.129220,0.127836,0.125346,0.125069,0.123132,0.122579,0.120365,0.119535,0.118705,0.120089,0.120089,0.120365,0.119812,0.119535,0.119535,0.119535,0.119535,0.118982,0.118428,0.118705,0.118152,0.118982,0.122579,0.119535,0.117875,0.118982,0.119535,0.120089,0.120919,0.121472,0.122025,0.121472,0.120365,0.120642,0.120919,0.121472,0.122856,0.122856,0.123132,0.122856,0.124792,0.124239,0.124516,0.125623,0.126453,0.126729,0.127559,0.127559,0.128666,0.128113,0.128943,0.130603,0.134477,0.134200,0.135584,0.136967,0.138074,0.141395,0.142501,0.144992,0.146652,0.147759,0.148312,0.150526,0.154400,0.159657,0.162424,0.166021,0.168235,0.166021,0.164361,0.160764,0.158827,0.160210,0.162147,0.167681,0.170448,0.168235,0.165191,0.167681,0.169618,0.168511,0.167958,0.167681,0.171002,0.175429,0.180963,0.184007,0.168788,0.180686,0.189817,0.185667,0.198672,0.198949,0.183453,0.183730,0.182900,0.188434,0.193138,0.197288,0.190647,0.185390,0.182070,0.180963,0.186220,0.187327,0.187880,0.193414,0.204206,0.210847,0.221638,0.229662,0.236580,0.239900,0.241561,0.240730,0.239624,0.237963,0.237133,0.235750,0.237963,0.242667,0.245158,0.252629,0.258993,0.267294,0.276148,0.275041,0.285833,0.288877,0.288877,0.289153,0.294411,0.301605,0.306585,0.309076,0.308522,0.299945,0.289707,0.282512,0.262590,0.248755,0.247648,0.245434,0.247095,0.248201,0.260376,0.277255,0.265910,0.252075,0.241284,0.221638,0.190924,0.185113,0.182070,0.178196,0.177089,0.174875,0.172662,0.169341,0.171002,0.172108,0.173492,0.176259,0.177642,0.176536,0.172662,0.173492,0.169895,0.181240,0.193691,0.199779,0.206696,0.199779,0.193414,0.187050,0.164638,0.179856,0.195075,0.221638,0.250968,0.237410,0.250415,0.269231,0.234643,0.193414,0.208356,0.226342,0.223022,0.226619,0.229109,0.230493,0.217488,0.198118,0.175706,0.168788,0.167681,0.176259,0.176812,0.168511,0.166298,0.166298,0.166298,0.162701,0.158550,0.163531,0.175152,0.179303,0.178473,0.180133,0.183453,0.183730,0.186220,0.190371,0.193691,0.203099,0.207250,0.202822,0.202269,0.193691,0.184560,0.194521,0.200332,0.198949,0.186774,0.188711,0.196458,0.197565,0.189264,0.184283,0.198395,0.193138,0.184837,0.182346,0.199225,0.210847,0.201716,0.203652,0.194245,0.200332,0.198118,0.192031,0.177919,0.163807,0.165191,0.165744,0.179026,0.175429,0.156336,0.151356,0.161317,0.139181,0.141948,0.141118,0.161871,0.178749,0.178473,0.198949,0.200609,0.199779,0.190371,0.186774,0.188987,0.199779,0.195628,0.197565,0.203376,0.205589,0.185390,0.163254,0.147205,0.137521,0.131987,0.130603,0.132817,0.133647,0.136691,0.143885,0.154400,0.162147,0.159380,0.153569,0.156613,0.160487,0.165744,0.179856,0.211677,0.203376,0.188987,0.177919,0.160210,0.148589,0.136691,0.134754,0.144438,0.138074,0.150249,0.161594,0.166021,0.167405,0.159657,0.172662,0.169065,0.153016,0.154123,0.174599,0.185944,0.186774,0.164361,0.155506,0.157997,0.142501,0.127836,0.116215,0.116768,0.123132,0.137797,0.131157,0.156613,0.164084
0.158827,0.164361,0.166851,0.156060,0.154953,0.143885,0.140841,0.135307,0.131433,0.129496,0.127283,0.125069,0.123409,0.121195,0.120365,0.120642,0.120365,0.118428,0.117598,0.117322,0.118982,0.119535,0.119535,0.118982,0.118428,0.117875,0.117322,0.117322,0.117322,0.117322,0.117045,0.117045,0.119812,0.118428,0.117598,0.117598,0.118982,0.119258,0.119535,0.119812,0.119258,0.119258,0.119535,0.119812,0.120642,0.120365,0.126176,0.126729,0.125069,0.123132,0.123686,0.123686,0.124792,0.124792,0.125623,0.125899,0.126453,0.127006,0.127283,0.128113,0.129496,0.129496,0.130603,0.131157,0.132263,0.132263,0.133924,0.135584,0.140564,0.142225,0.146099,0.151909,0.154400,0.156060,0.157997,0.159657,0.162424,0.164361,0.167958,0.169341,0.171002,0.174875,0.174322,0.172662,0.167681,0.168511,0.169065,0.170725,0.180686,0.174875,0.181240,0.185944,0.190094,0.181516,0.186497,0.188434,0.189264,0.194798,0.191754,0.167958,0.180686,0.193691,0.201162,0.197842,0.195905,0.194245,0.184837,0.186220,0.192861,0.206696,0.212507,0.211677,0.199779,0.193691,0.186497,0.185390,0.194798,0.197565,0.215827,0.203929,0.216657,0.225512,0.233260,0.242391,0.240454,0.244604,0.244604,0.241837,0.238794,0.238517,0.233536,0.237133,0.238240,0.234920,0.249585,0.263973,0.267571,0.276702,0.280852,0.288323,0.292750,0.292474,0.293304,0.296624,0.301882,0.305479,0.309076,0.312673,0.310183,0.293857,0.275041,0.261760,0.257056,0.252352,0.251522,0.255949,0.259546,0.271444,0.267571,0.235196,0.219978,0.211954,0.201439,0.193138,0.193414,0.185390,0.180133,0.175982,0.172939,0.169895,0.169341,0.167405,0.167128,0.168511,0.169618,0.171278,0.169065,0.172662,0.163807,0.164914,0.164084,0.167128,0.171278,0.175152,0.174045,0.176812,0.180963,0.162424,0.184007,0.201716,0.231046,0.261483,0.231323,0.210847,0.232429,0.226619,0.188987,0.207526,0.215551,0.215551,0.218871,0.213614,0.222191,0.206143,0.185390,0.175706,0.169618,0.164914,0.168235,0.170725,0.167681,0.165191,0.162977,0.161317,0.159103,0.157720,0.165468,0.172662,0.170725,0.177089,0.179856,0.181793,0.188987,0.193968,0.195628,0.199502,0.203099,0.209740,0.208910,0.198118,0.190924,0.196735,0.196735,0.186774,0.182623,0.173215,0.180410,0.183453,0.195628,0.178473,0.176259,0.188434,0.176812,0.169895,0.180963,0.183177,0.201439,0.197842,0.210017,0.203929,0.212507,0.200055,0.190647,0.178473,0.167958,0.176812,0.178473,0.187327,0.173769,0.168235,0.174322,0.187604,0.157997,0.140288,0.135584,0.141948,0.148035,0.151909,0.165191,0.169895,0.186220,0.189264,0.169065,0.167681,0.183453,0.186774,0.170448,0.179579,0.185113,0.174599,0.151633,0.158273,0.135861,0.129773,0.130050,0.132817,0.132540,0.136414,0.143331,0.149696,0.150526,0.154400,0.161594,0.178749,0.193691,0.195628,0.194798,0.192031,0.180686,0.184837,0.192584,0.175152,0.159380,0.162701,0.162424,0.134200,0.138351,0.151356,0.150249,0.146652,0.149696,0.161871,0.176812,0.175152,0.164361,0.153016,0.153016,0.170172,0.193414,0.196458,0.169065,0.159934,0.139734,0.118705,0.123686,0.131987,0.159657,0.172939,0.162701,0.176536,0.201992
0.154123,0.154676,0.149972,0.143885,0.138904,0.135030,0.130327,0.128666,0.126176,0.127283,0.124792,0.121472,0.120089,0.118428,0.118705,0.118428,0.117875,0.117322,0.116768,0.117045,0.117598,0.118982,0.118152,0.117875,0.117598,0.117045,0.116491,0.117322,0.117875,0.117322,0.116215,0.117598,0.117598,0.117045,0.117598,0.117598,0.118428,0.118705,0.117875,0.118428,0.118705,0.118705,0.118982,0.119535,0.120365,0.123132,0.127836,0.131433,0.126453,0.125069,0.125623,0.128113,0.128390,0.126176,0.125069,0.125623,0.126176,0.127283,0.127836,0.129220,0.130050,0.130327,0.131157,0.131987,0.132817,0.132817,0.134200,0.135861,0.138904,0.141948,0.143885,0.147205,0.149972,0.154953,0.155783,0.158550,0.159934,0.160487,0.161594,0.166021,0.171002,0.173769,0.182070,0.188711,0.185390,0.184837,0.179856,0.173215,0.185113,0.192861,0.190924,0.192308,0.201716,0.203929,0.204483,0.208356,0.209186,0.210293,0.192308,0.174322,0.169618,0.188434,0.205589,0.207803,0.201992,0.203099,0.191201,0.198395,0.198672,0.206973,0.221915,0.226342,0.217211,0.210570,0.194245,0.201992,0.210017,0.208356,0.218594,0.236027,0.224128,0.231599,0.237133,0.243498,0.243774,0.246265,0.246818,0.245711,0.243774,0.240454,0.234090,0.236857,0.240454,0.239070,0.236303,0.262867,0.277255,0.284449,0.290537,0.294411,0.296901,0.296071,0.295794,0.297731,0.301051,0.304649,0.309629,0.316270,0.303542,0.283896,0.273935,0.268124,0.262037,0.261206,0.266740,0.271444,0.268401,0.287770,0.276702,0.269231,0.262867,0.242667,0.218594,0.231046,0.229939,0.198395,0.180410,0.175429,0.172385,0.171002,0.169341,0.167681,0.167405,0.167681,0.164361,0.163807,0.166851,0.163531,0.160487,0.159657,0.158827,0.160210,0.161594,0.164361,0.175429,0.169341,0.164914,0.159657,0.178473,0.187327,0.207526,0.225235,0.219978,0.206973,0.191478,0.190924,0.180133,0.192308,0.197012,0.200055,0.206973,0.212230,0.193691,0.192308,0.177642,0.172939,0.181516,0.172939,0.161040,0.161317,0.162147,0.161594,0.161871,0.159934,0.156336,0.158273,0.163531,0.164084,0.167405,0.170172,0.174875,0.179579,0.186774,0.190924,0.198672,0.206973,0.218041,0.221085,0.212784,0.201716,0.198395,0.196458,0.192861,0.185113,0.183730,0.177089,0.164914,0.169341,0.179579,0.177089,0.170725,0.181793,0.169618,0.166021,0.172108,0.185113,0.187050,0.186497,0.199779,0.180963,0.183453,0.185667,0.193691,0.199779,0.186774,0.189541,0.200332,0.184007,0.176536,0.174045,0.183730,0.159657,0.162424,0.163254,0.137244,0.140841,0.159380,0.178196,0.181793,0.192308,0.209740,0.198118,0.175429,0.157997,0.171555,0.181516,0.169895,0.156890,0.159657,0.159380,0.144162,0.147205,0.130880,0.128666,0.129496,0.131710,0.133370,0.135030,0.139181,0.143885,0.146375,0.146652,0.157443,0.172385,0.187604,0.184560,0.180686,0.166298,0.159657,0.168235,0.185113,0.211400,0.198949,0.198118,0.179026,0.146929,0.129773,0.136414,0.141395,0.155783,0.167681,0.173215,0.165744,0.152186,0.168235,0.177089,0.168235,0.164914,0.184007,0.201439,0.179303,0.150802,0.133924,0.120919,0.143885,0.156060,0.158273,0.196182,0.211677,0.217211,0.226342
0.141395,0.141118,0.137244,0.133370,0.129496,0.125899,0.125346,0.123132,0.123409,0.123132,0.120642,0.118705,0.117598,0.117322,0.116215,0.117045,0.116491,0.116768,0.116215,0.115938,0.115938,0.117322,0.117875,0.117045,0.116215,0.116215,0.114831,0.116491,0.115938,0.116215,0.115661,0.117045,0.116491,0.115385,0.115661,0.116215,0.116768,0.116768,0.117045,0.117875,0.118152,0.118705,0.119258,0.119535,0.120089,0.121749,0.126176,0.128390,0.123686,0.122302,0.123962,0.125623,0.127559,0.127836,0.125899,0.126453,0.127006,0.127559,0.128943,0.129773,0.130603,0.131710,0.132540,0.132817,0.133924,0.134200,0.135030,0.135584,0.136414,0.140564,0.145822,0.148035,0.152739,0.158827,0.164914,0.172385,0.171832,0.170448,0.169065,0.166574,0.168235,0.171555,0.178473,0.183177,0.201992,0.202546,0.196458,0.184560,0.182623,0.197288,0.205313,0.201992,0.204759,0.214721,0.220255,0.226065,0.234643,0.224958,0.198672,0.180133,0.172662,0.175152,0.187327,0.202546,0.206973,0.205313,0.203376,0.209186,0.216381,0.207803,0.212784,0.223298,0.235473,0.220808,0.206696,0.211400,0.219148,0.223022,0.219701,0.218318,0.232153,0.237687,0.241837,0.247925,0.246818,0.247095,0.248755,0.247925,0.247371,0.243774,0.237133,0.237963,0.244328,0.244328,0.241007,0.252905,0.270614,0.293304,0.302158,0.299945,0.301051,0.299668,0.298838,0.299945,0.304925,0.311013,0.317930,0.315440,0.294964,0.282789,0.277532,0.276702,0.281682,0.294411,0.301882,0.291920,0.287770,0.304095,0.310459,0.297731,0.277255,0.252075,0.250968,0.258439,0.236027,0.200055,0.183453,0.177919,0.173769,0.168511,0.167681,0.166851,0.166851,0.166021,0.165468,0.164914,0.166851,0.161871,0.162424,0.161040,0.158827,0.155783,0.156060,0.157997,0.160487,0.163531,0.161594,0.157167,0.162424,0.166574,0.175706,0.185944,0.184007,0.178749,0.177642,0.175706,0.175152,0.171002,0.171002,0.185944,0.192584,0.202822,0.192308,0.177642,0.169341,0.166851,0.166298,0.164914,0.162701,0.157720,0.158550,0.161317,0.158827,0.155783,0.154123,0.158827,0.162977,0.167958,0.171278,0.174322,0.181793,0.189817,0.187880,0.192031,0.197842,0.206419,0.225235,0.242944,0.217211,0.203652,0.195351,0.188157,0.199225,0.200609,0.197565,0.182070,0.172385,0.163807,0.166021,0.165191,0.167128,0.175429,0.163807,0.167128,0.179579,0.183730,0.187050,0.172108,0.185667,0.183177,0.167405,0.169895,0.179303,0.191754,0.196458,0.195628,0.198949,0.183177,0.174322,0.168511,0.170448,0.184560,0.207526,0.199502,0.169618,0.140841,0.135584,0.160210,0.178196,0.195905,0.206973,0.179579,0.169895,0.151356,0.159103,0.174875,0.176259,0.160764,0.153016,0.143885,0.140564,0.143331,0.131987,0.128113,0.128113,0.130603,0.133370,0.141948,0.166851,0.180963,0.174045,0.154123,0.155506,0.174599,0.185113,0.162147,0.159103,0.153016,0.146375,0.148589,0.172939,0.195075,0.207526,0.176812,0.160487,0.141395,0.126729,0.142501,0.152186,0.154400,0.160764,0.151909,0.148589,0.146929,0.153569,0.175429,0.182346,0.172939,0.201439,0.218871,0.195075,0.160764,0.135861,0.126729,0.155506,0.184283,0.198672,0.206419,0.243498,0.244604,0.216104
0.134477,0.131433,0.128390,0.125623,0.122856,0.121195,0.123132,0.122025,0.120642,0.117875,0.117875,0.116768,0.116491,0.115108,0.114831,0.115385,0.115385,0.115385,0.115938,0.114278,0.114555,0.116215,0.115938,0.115938,0.115108,0.114831,0.114831,0.114831,0.115661,0.115661,0.115108,0.114278,0.114831,0.115385,0.115661,0.116215,0.116491,0.116768,0.116768,0.117875,0.118982,0.119258,0.120365,0.121195,0.121195,0.121195,0.120365,0.121195,0.121195,0.121472,0.122025,0.122579,0.122856,0.124792,0.127006,0.128390,0.129773,0.128390,0.129496,0.130603,0.131157,0.132540,0.133370,0.134200,0.135030,0.135584,0.135584,0.136691,0.137797,0.138074,0.138904,0.142778,0.149419,0.159380,0.167681,0.170448,0.172108,0.179303,0.179579,0.174875,0.172662,0.173769,0.176812,0.183453,0.194245,0.207526,0.217211,0.206143,0.194245,0.182070,0.184837,0.199225,0.207803,0.216381,0.231323,0.241837,0.253459,0.229109,0.201162,0.189264,0.177089,0.175152,0.175429,0.177642,0.186220,0.200332,0.216657,0.223298,0.229939,0.224682,0.227172,0.240177,0.243498,0.230493,0.216657,0.217764,0.227726,0.229939,0.232429,0.234366,0.241837,0.240730,0.244881,0.246265,0.246541,0.248201,0.248478,0.249308,0.250138,0.249308,0.247648,0.237133,0.244881,0.249032,0.246818,0.249862,0.274765,0.296348,0.312120,0.307969,0.304649,0.304095,0.305755,0.310459,0.317930,0.332595,0.336193,0.315163,0.298838,0.294411,0.299115,0.315717,0.327338,0.335639,0.328722,0.325678,0.324571,0.315163,0.304372,0.293304,0.278362,0.274211,0.265080,0.239900,0.213890,0.195351,0.182070,0.171278,0.168511,0.168511,0.165744,0.164914,0.164914,0.163807,0.163807,0.165744,0.164638,0.163807,0.162424,0.162147,0.162147,0.161871,0.154953,0.153846,0.160487,0.158550,0.157167,0.154953,0.157443,0.157997,0.160210,0.170448,0.168788,0.177366,0.198949,0.219701,0.214444,0.193968,0.171832,0.165744,0.173769,0.188434,0.177642,0.169065,0.165468,0.163254,0.162147,0.161594,0.160487,0.157997,0.154953,0.156060,0.157167,0.152186,0.154953,0.161594,0.167681,0.175706,0.180686,0.180686,0.186497,0.187327,0.185667,0.188434,0.193414,0.198949,0.207250,0.210293,0.208080,0.203099,0.192861,0.185113,0.180963,0.183453,0.185944,0.183730,0.185390,0.172385,0.164914,0.155506,0.163531,0.158273,0.161317,0.172662,0.167128,0.176536,0.188157,0.170448,0.164361,0.182346,0.172662,0.160210,0.170172,0.170725,0.176536,0.173215,0.182900,0.189264,0.183453,0.188711,0.190371,0.210017,0.217488,0.211677,0.191201,0.161040,0.133924,0.141118,0.165744,0.188434,0.184283,0.172662,0.153569,0.147759,0.164084,0.185944,0.193414,0.175706,0.159103,0.145822,0.139181,0.138351,0.144438,0.126729,0.128390,0.129496,0.134477,0.148866,0.181793,0.208080,0.185944,0.186220,0.189541,0.185944,0.171278,0.149972,0.143055,0.144715,0.136414,0.139734,0.157720,0.164914,0.196735,0.176812,0.150249,0.130603,0.125069,0.133370,0.138904,0.137521,0.144438,0.135861,0.152739,0.160210,0.173492,0.186497,0.192031,0.193414,0.213337,0.239070,0.213890,0.178196,0.144992,0.130603,0.157997,0.185667,0.206419,0.235750,0.265357,0.259270,0.241284
0.130327,0.127283,0.124516,0.123132,0.119535,0.119812,0.122302,0.119535,0.118152,0.119258,0.122025,0.120642,0.117045,0.114001,0.113724,0.114831,0.114001,0.114278,0.114001,0.114001,0.113448,0.113171,0.114001,0.112894,0.112341,0.112341,0.112064,0.112618,0.114001,0.115385,0.112618,0.114831,0.115108,0.115385,0.115385,0.116768,0.117598,0.118705,0.122579,0.124239,0.121472,0.122856,0.123686,0.123409,0.122579,0.121472,0.121472,0.121195,0.122025,0.123409,0.123686,0.122579,0.124239,0.124792,0.125899,0.126729,0.127836,0.128666,0.130050,0.130327,0.131710,0.133094,0.134477,0.135030,0.135584,0.136414,0.137521,0.140288,0.144438,0.146929,0.142225,0.139734,0.143331,0.148589,0.155230,0.166851,0.172662,0.174599,0.177366,0.173492,0.167128,0.166851,0.167958,0.174045,0.179579,0.190094,0.200055,0.219978,0.215551,0.205313,0.189817,0.196182,0.189817,0.206973,0.223575,0.224682,0.243221,0.219978,0.211677,0.199225,0.180133,0.180686,0.183453,0.182900,0.180133,0.187327,0.198949,0.211400,0.224682,0.245434,0.251245,0.259270,0.254566,0.244881,0.237410,0.227172,0.237133,0.237687,0.238794,0.241284,0.242944,0.249308,0.253182,0.251245,0.245434,0.249308,0.251245,0.252352,0.253459,0.252905,0.253182,0.243221,0.244051,0.251522,0.254012,0.257609,0.274488,0.298284,0.318207,0.315440,0.311566,0.312120,0.314887,0.324018,0.324571,0.314333,0.315163,0.311289,0.308799,0.310736,0.301882,0.307692,0.329275,0.310183,0.296071,0.301051,0.285833,0.277255,0.271721,0.283619,0.258439,0.253459,0.232153,0.214721,0.198118,0.185944,0.173769,0.169895,0.169065,0.170172,0.167128,0.164914,0.163531,0.162147,0.162977,0.162424,0.161594,0.164638,0.163254,0.165744,0.166574,0.163531,0.157167,0.153016,0.154123,0.159657,0.159103,0.153016,0.155506,0.154400,0.153569,0.156613,0.159657,0.178473,0.201162,0.229386,0.231876,0.210570,0.188157,0.169895,0.159657,0.161317,0.162977,0.159934,0.159657,0.160210,0.159103,0.161040,0.160487,0.159657,0.157720,0.151909,0.152186,0.152739,0.157167,0.163531,0.167958,0.174045,0.179579,0.188711,0.185667,0.178473,0.188987,0.179856,0.186220,0.186497,0.193414,0.193691,0.188711,0.190371,0.192584,0.190647,0.190371,0.172662,0.167681,0.166298,0.173492,0.174045,0.172662,0.164638,0.150249,0.154400,0.166298,0.166574,0.157997,0.172662,0.184560,0.176536,0.155506,0.159103,0.180963,0.174322,0.154676,0.162977,0.160210,0.174875,0.185667,0.191201,0.211677,0.204759,0.201439,0.213614,0.197012,0.180686,0.166574,0.151633,0.139181,0.133094,0.156060,0.182070,0.166574,0.153016,0.144162,0.161594,0.189817,0.203376,0.199779,0.170172,0.150526,0.142225,0.136691,0.133094,0.139458,0.125899,0.126729,0.127836,0.133370,0.156060,0.187327,0.224405,0.214721,0.201162,0.204206,0.209740,0.192584,0.172939,0.148312,0.134477,0.131157,0.133647,0.137797,0.173215,0.181516,0.155506,0.130880,0.122302,0.126729,0.128943,0.129220,0.128390,0.131987,0.144992,0.162977,0.157167,0.157720,0.165191,0.170172,0.202822,0.210017,0.225235,0.205866,0.169618,0.147759,0.131987,0.151079,0.176812,0.205589,0.239347,0.264250,0.256502,0.233536
0.125899,0.122856,0.123409,0.122856,0.117045,0.118982,0.122025,0.120089,0.117598,0.119812,0.119535,0.118982,0.115385,0.112618,0.112894,0.113171,0.113448,0.112618,0.112894,0.112894,0.112618,0.112341,0.111234,0.111787,0.111511,0.112618,0.112618,0.112894,0.114555,0.116491,0.119812,0.117875,0.122025,0.118982,0.122025,0.122856,0.122856,0.122302,0.123962,0.126453,0.125899,0.125069,0.126453,0.126453,0.125346,0.124516,0.123409,0.122856,0.123962,0.124516,0.125346,0.124792,0.125346,0.127283,0.125899,0.127559,0.128666,0.129773,0.131157,0.132263,0.132817,0.133924,0.135307,0.136414,0.136967,0.137797,0.138628,0.142501,0.149972,0.159934,0.162147,0.145268,0.142225,0.142501,0.145545,0.150526,0.155506,0.158550,0.163531,0.160764,0.157720,0.157443,0.162701,0.164084,0.167681,0.175982,0.187880,0.196458,0.210293,0.222191,0.210293,0.204206,0.204206,0.201716,0.198395,0.211954,0.214997,0.232429,0.216381,0.196182,0.185944,0.190094,0.192031,0.190647,0.186497,0.184007,0.193968,0.205589,0.211954,0.222468,0.246265,0.257056,0.267571,0.263420,0.255396,0.241284,0.245158,0.244604,0.243774,0.244881,0.249032,0.254289,0.260653,0.259270,0.249308,0.248755,0.252905,0.256502,0.257056,0.255119,0.253735,0.256779,0.257886,0.252075,0.258163,0.263143,0.273105,0.285556,0.317100,0.321527,0.319590,0.321527,0.330659,0.339513,0.322911,0.298284,0.292750,0.283066,0.277809,0.275041,0.281129,0.292750,0.319314,0.294964,0.260930,0.265080,0.268954,0.247648,0.257056,0.248755,0.236027,0.222191,0.211123,0.202546,0.188711,0.176536,0.170448,0.168788,0.167405,0.169065,0.166851,0.167405,0.163807,0.162147,0.161040,0.162147,0.160764,0.162147,0.164361,0.165468,0.164361,0.161040,0.157997,0.153846,0.150802,0.151909,0.153016,0.153569,0.152186,0.153016,0.151356,0.151356,0.153016,0.158273,0.171278,0.192031,0.221361,0.212784,0.195351,0.171002,0.164084,0.163254,0.155230,0.153569,0.153569,0.152739,0.153293,0.156890,0.157443,0.158273,0.157167,0.150802,0.150526,0.154400,0.157167,0.161317,0.165191,0.169065,0.179856,0.185944,0.174875,0.179026,0.187327,0.174322,0.175152,0.176259,0.179303,0.180686,0.178749,0.182623,0.190647,0.190371,0.199779,0.196458,0.182900,0.165191,0.158827,0.161040,0.161871,0.160487,0.152186,0.151079,0.159934,0.158273,0.155230,0.164638,0.174045,0.162424,0.151633,0.156613,0.176259,0.168511,0.154953,0.156060,0.173215,0.176536,0.170448,0.190094,0.196182,0.207803,0.213337,0.223022,0.205866,0.192031,0.191754,0.179303,0.150526,0.133370,0.161871,0.163531,0.146929,0.141395,0.156890,0.171278,0.180410,0.173769,0.193414,0.178749,0.156890,0.143331,0.134200,0.131433,0.131157,0.125899,0.125069,0.126176,0.130327,0.154400,0.190371,0.228002,0.202269,0.166574,0.181516,0.198949,0.207250,0.195905,0.175429,0.153846,0.153846,0.133370,0.133924,0.166298,0.153569,0.130327,0.121195,0.138628,0.155230,0.140564,0.142501,0.146375,0.135584,0.134477,0.143885,0.145545,0.152463,0.154123,0.181240,0.180963,0.179856,0.191754,0.217764,0.199225,0.171002,0.146375,0.162977,0.187327,0.203099,0.239347,0.226342,0.206696,0.207803
0.121195,0.121195,0.123409,0.117875,0.117875,0.122302,0.124239,0.117322,0.117322,0.117598,0.116491,0.115661,0.112341,0.111787,0.112341,0.112618,0.112618,0.112064,0.112064,0.112618,0.110681,0.111511,0.110681,0.110127,0.111234,0.112618,0.115108,0.118428,0.119812,0.120642,0.121195,0.120365,0.124516,0.128390,0.131710,0.133094,0.132540,0.130880,0.128113,0.128113,0.128943,0.129220,0.130050,0.129773,0.129496,0.129496,0.129220,0.128943,0.129220,0.129773,0.128943,0.128943,0.130880,0.131433,0.131987,0.131710,0.131710,0.132540,0.133370,0.135030,0.134754,0.135584,0.136414,0.138074,0.138351,0.139181,0.140564,0.143608,0.147205,0.149419,0.153846,0.149142,0.148312,0.145268,0.142778,0.146375,0.150249,0.155230,0.149696,0.151909,0.154953,0.155506,0.154123,0.156613,0.159380,0.164638,0.168788,0.174875,0.185944,0.193138,0.207250,0.219424,0.212507,0.228279,0.222468,0.205589,0.224958,0.243774,0.218318,0.205036,0.199502,0.202546,0.203099,0.201716,0.195905,0.190647,0.188157,0.191201,0.205866,0.221085,0.228279,0.231876,0.239624,0.262867,0.252629,0.247371,0.250138,0.248478,0.251799,0.255949,0.255949,0.259823,0.271721,0.275041,0.256779,0.252352,0.254289,0.258993,0.258993,0.258716,0.257333,0.260653,0.279192,0.279745,0.268677,0.270891,0.276425,0.295241,0.315440,0.330659,0.328722,0.334532,0.350581,0.355838,0.335639,0.311289,0.292474,0.281959,0.272828,0.271444,0.264250,0.271721,0.285279,0.286940,0.267847,0.244881,0.243774,0.234643,0.231599,0.226619,0.217764,0.208910,0.202822,0.196735,0.176259,0.174322,0.172662,0.169341,0.166851,0.165468,0.167128,0.163531,0.163807,0.161594,0.160764,0.160210,0.159380,0.161040,0.160487,0.159103,0.159380,0.157720,0.153016,0.154676,0.154953,0.151079,0.152463,0.148589,0.149419,0.148312,0.148589,0.148589,0.148866,0.150526,0.153569,0.161871,0.182070,0.202269,0.184560,0.165191,0.166298,0.157720,0.153293,0.151633,0.150526,0.149142,0.150249,0.151633,0.154123,0.156060,0.151356,0.149142,0.156336,0.157720,0.159934,0.158827,0.163531,0.167128,0.173769,0.176259,0.168235,0.179303,0.179026,0.168788,0.169341,0.168788,0.171555,0.172662,0.172939,0.182070,0.185390,0.179579,0.184007,0.188711,0.190094,0.178196,0.168235,0.158827,0.153016,0.155506,0.154400,0.145545,0.152739,0.149972,0.152186,0.152463,0.163807,0.151356,0.146929,0.156613,0.170725,0.176536,0.161871,0.147205,0.164084,0.159934,0.163531,0.169341,0.180686,0.195075,0.206143,0.212230,0.192031,0.170725,0.179026,0.179579,0.149142,0.133094,0.143331,0.140564,0.146375,0.167958,0.199779,0.191478,0.165191,0.152463,0.177089,0.166021,0.147759,0.140011,0.133924,0.129773,0.127559,0.131433,0.123686,0.125623,0.126453,0.149419,0.183730,0.214721,0.190094,0.159934,0.156613,0.180686,0.185390,0.194245,0.205313,0.200609,0.187050,0.158827,0.128943,0.136137,0.135861,0.120642,0.127006,0.132263,0.144438,0.157167,0.156890,0.167681,0.156890,0.141118,0.135584,0.141948,0.150526,0.165744,0.167405,0.157720,0.168511,0.195905,0.232153,0.234920,0.203929,0.178749,0.160764,0.188434,0.219424,0.245158,0.211123,0.180133,0.181240
0.118152,0.123686,0.118152,0.114555,0.116768,0.119812,0.118705,0.113724,0.117045,0.114831,0.115385,0.112064,0.110957,0.110681,0.110957,0.112064,0.111511,0.111234,0.111234,0.110681,0.110681,0.110127,0.110404,0.112618,0.115108,0.117322,0.119535,0.120642,0.121749,0.123686,0.124792,0.125069,0.125069,0.136414,0.148589,0.146375,0.149419,0.151356,0.143331,0.138628,0.135307,0.135584,0.131987,0.136691,0.136414,0.138628,0.139458,0.138904,0.138074,0.137521,0.137521,0.135307,0.137244,0.137521,0.138904,0.137244,0.137797,0.140011,0.140011,0.137797,0.138351,0.139458,0.142501,0.148312,0.149142,0.144162,0.141118,0.146929,0.147759,0.146929,0.149419,0.151633,0.153293,0.149142,0.147759,0.144715,0.145268,0.145822,0.149972,0.153569,0.161871,0.163531,0.169618,0.167681,0.163531,0.161594,0.159657,0.164084,0.171002,0.176536,0.183730,0.193138,0.208080,0.215551,0.222468,0.233536,0.235196,0.231046,0.232706,0.219978,0.211123,0.214167,0.217764,0.210570,0.206419,0.201716,0.199779,0.202269,0.199225,0.196735,0.203376,0.221638,0.238794,0.245988,0.254566,0.259823,0.258993,0.256502,0.256502,0.260653,0.266740,0.276978,0.282512,0.273658,0.262867,0.258439,0.256502,0.259270,0.261483,0.261206,0.261206,0.263143,0.287216,0.300498,0.291920,0.281129,0.285833,0.305755,0.322358,0.342280,0.339513,0.344770,0.340620,0.327892,0.326785,0.325678,0.312673,0.272551,0.265910,0.264527,0.258163,0.250968,0.254842,0.254012,0.244881,0.239070,0.230769,0.230493,0.222745,0.217764,0.211123,0.209463,0.200055,0.182346,0.177366,0.178749,0.173215,0.171278,0.170172,0.166298,0.165744,0.164361,0.163807,0.163531,0.163254,0.162977,0.160487,0.158273,0.158827,0.157720,0.156890,0.154676,0.158827,0.160210,0.159380,0.159380,0.161317,0.159657,0.159380,0.154400,0.149696,0.145545,0.144992,0.144715,0.147482,0.148866,0.153016,0.157997,0.156890,0.153293,0.153016,0.151909,0.150802,0.149972,0.149419,0.148866,0.148312,0.147759,0.149696,0.146929,0.154676,0.158273,0.160764,0.161317,0.162977,0.160210,0.160487,0.164638,0.172108,0.167958,0.167958,0.179856,0.179579,0.164914,0.167128,0.165191,0.167681,0.166021,0.169618,0.175152,0.184007,0.182346,0.174875,0.171002,0.176536,0.178473,0.179579,0.164084,0.154953,0.149696,0.148866,0.148312,0.142501,0.143055,0.140288,0.144438,0.149696,0.144992,0.150802,0.154676,0.165744,0.174599,0.164914,0.148312,0.148589,0.148866,0.155506,0.162701,0.173769,0.186774,0.191478,0.195075,0.185667,0.167958,0.153293,0.149696,0.136691,0.130603,0.133647,0.145822,0.160210,0.179856,0.188987,0.174875,0.148866,0.158550,0.159103,0.143608,0.136691,0.133924,0.132540,0.136967,0.128390,0.124792,0.123409,0.123409,0.126729,0.151633,0.187327,0.206419,0.199779,0.173769,0.148866,0.154400,0.161594,0.192584,0.214444,0.200609,0.190094,0.169065,0.143885,0.122302,0.119535,0.117322,0.137521,0.152739,0.151079,0.154400,0.172662,0.178749,0.158273,0.154400,0.150802,0.140288,0.144438,0.147205,0.159103,0.170448,0.187880,0.221915,0.235750,0.224958,0.225512,0.208910,0.182346,0.186497,0.209463,0.239900,0.208910,0.186497,0.160764
0.120919,0.117875,0.112894,0.114831,0.116215,0.116215,0.117598,0.113171,0.111234,0.108744,0.108744,0.109020,0.109574,0.109851,0.110127,0.110127,0.109851,0.109020,0.108744,0.109020,0.109574,0.110127,0.115938,0.117322,0.118705,0.122025,0.125069,0.127836,0.129496,0.129773,0.131157,0.130880,0.131157,0.133647,0.153293,0.161040,0.165744,0.181793,0.180686,0.165191,0.155783,0.147482,0.141395,0.144992,0.146375,0.153016,0.151909,0.151356,0.151633,0.149142,0.148035,0.149419,0.150249,0.148312,0.148866,0.150526,0.149696,0.149972,0.148035,0.141395,0.145545,0.152186,0.154400,0.156060,0.158827,0.151633,0.151079,0.143608,0.148589,0.151909,0.158273,0.167405,0.162701,0.154400,0.154676,0.151356,0.148866,0.148035,0.146652,0.149696,0.162147,0.163807,0.171278,0.174599,0.170725,0.169341,0.173215,0.170448,0.164361,0.165468,0.170725,0.177642,0.184560,0.196182,0.195628,0.206143,0.205866,0.206973,0.216934,0.206143,0.201716,0.205036,0.218594,0.220255,0.216934,0.215551,0.218594,0.221085,0.222191,0.218594,0.211677,0.223298,0.237133,0.246265,0.254842,0.259270,0.262313,0.265357,0.266464,0.268401,0.271721,0.278085,0.280852,0.270338,0.265634,0.260930,0.256226,0.261483,0.265080,0.264804,0.265080,0.267571,0.282236,0.291367,0.302988,0.295241,0.301051,0.327338,0.339513,0.338960,0.322358,0.316823,0.313503,0.301605,0.302988,0.291920,0.289430,0.267294,0.254012,0.254566,0.251522,0.248201,0.243221,0.236857,0.230769,0.226342,0.227172,0.222745,0.218594,0.211677,0.202546,0.192031,0.183730,0.179856,0.182070,0.177089,0.179026,0.175706,0.175152,0.169895,0.167405,0.166298,0.166298,0.171832,0.167681,0.164084,0.162977,0.163254,0.163254,0.163254,0.160764,0.160487,0.165468,0.168511,0.165468,0.166574,0.164914,0.164084,0.164084,0.158827,0.152739,0.150526,0.148312,0.143885,0.143331,0.143885,0.146099,0.147759,0.146652,0.147205,0.147205,0.147205,0.147759,0.147482,0.147482,0.146375,0.146099,0.146099,0.145268,0.151079,0.157997,0.160487,0.163254,0.165744,0.167128,0.166021,0.162147,0.160764,0.171278,0.162424,0.172108,0.177089,0.175982,0.165744,0.158827,0.160210,0.162424,0.161871,0.166021,0.175706,0.184283,0.180686,0.172662,0.165468,0.165468,0.166574,0.171002,0.163807,0.156060,0.153293,0.146652,0.147205,0.156060,0.159103,0.148866,0.139734,0.139734,0.138904,0.148589,0.156613,0.152463,0.166574,0.163807,0.146375,0.140841,0.146652,0.158827,0.163254,0.173492,0.174599,0.179856,0.185944,0.165191,0.154123,0.153016,0.143608,0.131987,0.130050,0.131987,0.138351,0.146652,0.155230,0.169065,0.159934,0.140841,0.150802,0.141395,0.132817,0.130050,0.129496,0.128113,0.128113,0.127836,0.125623,0.123132,0.122025,0.122856,0.146652,0.169618,0.187050,0.185390,0.184283,0.166298,0.138904,0.151356,0.175152,0.193138,0.182900,0.160487,0.156890,0.135307,0.126729,0.125623,0.116491,0.129496,0.142778,0.149972,0.161317,0.177919,0.183453,0.171832,0.163531,0.162701,0.155783,0.152463,0.166298,0.181793,0.202546,0.220531,0.221915,0.204483,0.191478,0.194245,0.214997,0.220255,0.214997,0.234366,0.253182,0.218594,0.187880,0.155230
0.115661,0.112618,0.110681,0.114278,0.114278,0.116491,0.117045,0.114001,0.108467,0.108190,0.107914,0.108190,0.108744,0.108467,0.107360,0.107360,0.107637,0.108467,0.109020,0.111234,0.115661,0.118428,0.121472,0.124516,0.126453,0.128666,0.131987,0.133924,0.141118,0.141948,0.141118,0.142501,0.140288,0.141395,0.137244,0.148312,0.163807,0.188987,0.216657,0.207526,0.187050,0.166851,0.162424,0.144715,0.162701,0.172385,0.175982,0.173492,0.169618,0.166574,0.154400,0.168788,0.166298,0.162147,0.169065,0.171278,0.171278,0.171555,0.166574,0.144715,0.153846,0.161871,0.171555,0.169065,0.161594,0.162701,0.155783,0.148866,0.146099,0.153846,0.175982,0.198672,0.185667,0.165191,0.159380,0.162701,0.157720,0.152186,0.151079,0.148589,0.150249,0.161317,0.170725,0.171832,0.177642,0.174875,0.174045,0.179856,0.174045,0.169618,0.167405,0.168788,0.172385,0.177642,0.182070,0.185390,0.187050,0.188434,0.188987,0.190924,0.197288,0.203099,0.207250,0.216934,0.216657,0.219148,0.227172,0.238240,0.245434,0.239347,0.236027,0.235473,0.240454,0.250138,0.256502,0.260100,0.267017,0.270061,0.274488,0.278915,0.285556,0.286386,0.283896,0.273658,0.271998,0.274765,0.268677,0.267571,0.267571,0.268677,0.269507,0.271168,0.276148,0.287216,0.296624,0.301882,0.311013,0.323188,0.332042,0.336746,0.313226,0.301605,0.292197,0.286663,0.283066,0.275872,0.269507,0.265080,0.258439,0.252905,0.251799,0.248755,0.240730,0.234920,0.229386,0.228002,0.226342,0.217211,0.215551,0.210293,0.204759,0.198118,0.195351,0.183453,0.184560,0.187050,0.182070,0.176259,0.176259,0.173769,0.170725,0.171555,0.175982,0.171832,0.171002,0.170448,0.171555,0.167681,0.167958,0.166574,0.172662,0.173769,0.166574,0.167128,0.166298,0.163807,0.162977,0.163531,0.160764,0.158827,0.155230,0.150802,0.148035,0.145268,0.142501,0.142501,0.143331,0.143331,0.142778,0.142778,0.144438,0.144992,0.146652,0.146652,0.146929,0.145822,0.145268,0.144992,0.144438,0.150526,0.156613,0.162701,0.167681,0.171832,0.175982,0.170725,0.166574,0.162701,0.159103,0.158273,0.159657,0.167128,0.172385,0.159934,0.156060,0.157443,0.158550,0.158550,0.162701,0.170725,0.175706,0.183453,0.178749,0.176536,0.165744,0.157997,0.159103,0.156890,0.153293,0.148312,0.152739,0.164084,0.165468,0.156890,0.148035,0.149696,0.139181,0.135307,0.136137,0.136967,0.142225,0.147482,0.155783,0.146929,0.137244,0.156890,0.161871,0.171555,0.172939,0.165744,0.173215,0.169895,0.163807,0.159380,0.151909,0.143885,0.130603,0.127559,0.129773,0.135030,0.136691,0.141948,0.148866,0.148312,0.137521,0.133924,0.132817,0.127006,0.124792,0.126729,0.127836,0.124792,0.125346,0.127283,0.122025,0.121472,0.121749,0.133094,0.153293,0.155506,0.158550,0.173215,0.175706,0.159657,0.136414,0.145822,0.165744,0.162424,0.152186,0.141671,0.153569,0.141395,0.127006,0.115108,0.125346,0.141118,0.149419,0.157443,0.151633,0.170172,0.180963,0.181516,0.182623,0.176259,0.179026,0.186497,0.208633,0.199502,0.191754,0.206696,0.179026,0.167405,0.174599,0.181516,0.194798,0.230769,0.263697,0.262037,0.225789,0.196458,0.173215
0.110127,0.109020,0.109851,0.111787,0.113171,0.115385,0.116491,0.113448,0.108467,0.107360,0.107637,0.107084,0.106530,0.106530,0.107360,0.107084,0.108467,0.113448,0.117045,0.120089,0.121749,0.125623,0.132817,0.141118,0.139734,0.142501,0.146375,0.146929,0.155783,0.165468,0.154676,0.159103,0.153016,0.151079,0.148312,0.142501,0.157720,0.170448,0.189541,0.210847,0.215274,0.188434,0.182623,0.150526,0.169618,0.182900,0.199225,0.196735,0.194798,0.183730,0.165744,0.178196,0.192861,0.177919,0.182346,0.193138,0.191478,0.175152,0.157443,0.150802,0.162147,0.183453,0.192308,0.175152,0.174045,0.171002,0.162424,0.154676,0.148866,0.153016,0.179026,0.218594,0.203099,0.179303,0.167405,0.170448,0.170725,0.160764,0.156890,0.152739,0.149696,0.153016,0.159380,0.171555,0.171002,0.171555,0.180686,0.181793,0.181516,0.183730,0.175982,0.178196,0.172662,0.172385,0.175152,0.176259,0.178473,0.184560,0.190647,0.197842,0.210293,0.216104,0.218041,0.215274,0.210847,0.211400,0.214444,0.219701,0.231046,0.240730,0.241007,0.247371,0.251799,0.255949,0.259546,0.266464,0.272828,0.277809,0.281406,0.286110,0.292474,0.296348,0.288323,0.282236,0.280022,0.286386,0.283619,0.271168,0.270614,0.271998,0.274211,0.278639,0.283066,0.288046,0.292750,0.297178,0.308246,0.314887,0.326508,0.328445,0.305479,0.297454,0.293581,0.285833,0.278639,0.270891,0.266464,0.265634,0.262313,0.258163,0.252075,0.245158,0.239900,0.235750,0.230493,0.226342,0.223575,0.221361,0.214721,0.208910,0.203652,0.201439,0.197288,0.191478,0.192031,0.190094,0.180410,0.179579,0.180133,0.175982,0.179303,0.182070,0.189264,0.183453,0.180963,0.178473,0.180410,0.179303,0.176259,0.178196,0.175152,0.170448,0.165744,0.164084,0.161317,0.159380,0.157720,0.161040,0.155230,0.154123,0.154953,0.148866,0.145268,0.144162,0.143055,0.141671,0.141671,0.141395,0.141671,0.141118,0.141671,0.143055,0.144715,0.144715,0.145545,0.145545,0.143331,0.146375,0.143055,0.147482,0.155506,0.168235,0.174045,0.182900,0.185944,0.185113,0.176812,0.168788,0.162701,0.160210,0.157720,0.156060,0.164914,0.159103,0.153569,0.153846,0.156890,0.153846,0.163254,0.167405,0.171002,0.176812,0.176536,0.169618,0.163254,0.159103,0.156336,0.153569,0.149419,0.151356,0.164361,0.174875,0.164084,0.158273,0.155506,0.144992,0.143055,0.151356,0.146652,0.145268,0.138074,0.131987,0.137521,0.148035,0.134754,0.151079,0.167958,0.164084,0.170725,0.157997,0.164914,0.155230,0.165191,0.148589,0.140288,0.136137,0.129773,0.127559,0.127836,0.128943,0.130880,0.135307,0.138904,0.131710,0.130880,0.128390,0.127559,0.127559,0.123686,0.126729,0.125346,0.123132,0.124516,0.123686,0.121472,0.120365,0.124239,0.132540,0.141395,0.140564,0.141118,0.157997,0.168235,0.163531,0.148589,0.131433,0.136967,0.140564,0.139734,0.131710,0.141948,0.141395,0.124516,0.113724,0.127836,0.148035,0.148312,0.151356,0.143331,0.162977,0.161040,0.183177,0.185113,0.180686,0.203929,0.214167,0.198395,0.187604,0.167958,0.181240,0.166021,0.145822,0.150802,0.160487,0.187880,0.226342,0.233813,0.231876,0.218318,0.218594,0.215551
0.108744,0.108190,0.109851,0.113171,0.114831,0.114555,0.113171,0.113171,0.109297,0.107360,0.106807,0.106253,0.106530,0.106530,0.110957,0.114278,0.116768,0.117045,0.118705,0.121195,0.125899,0.130880,0.137244,0.148312,0.156060,0.156336,0.160210,0.163531,0.169065,0.166298,0.160487,0.156890,0.151909,0.148035,0.148589,0.151356,0.148035,0.164084,0.172939,0.182346,0.209463,0.218594,0.206973,0.164361,0.158273,0.168235,0.183177,0.202269,0.212230,0.196735,0.179579,0.188434,0.200332,0.195628,0.201162,0.201992,0.184837,0.168788,0.154676,0.158273,0.172108,0.200055,0.195351,0.193691,0.187604,0.179303,0.173492,0.162977,0.154400,0.148589,0.166021,0.200055,0.222468,0.197012,0.183453,0.171002,0.172939,0.169618,0.162424,0.159103,0.156060,0.152186,0.153293,0.158550,0.160487,0.174045,0.177919,0.179026,0.185944,0.187604,0.188157,0.183730,0.186774,0.184007,0.177919,0.179579,0.183177,0.187327,0.191201,0.196458,0.201992,0.208910,0.216381,0.216934,0.206973,0.205313,0.205866,0.213614,0.224128,0.230216,0.241007,0.247925,0.250968,0.255119,0.260100,0.266740,0.273381,0.279745,0.286940,0.289430,0.290814,0.293027,0.288600,0.287493,0.287216,0.289983,0.286940,0.279469,0.276148,0.276702,0.278085,0.280852,0.283066,0.286663,0.293304,0.300221,0.306032,0.315717,0.327615,0.327615,0.311013,0.299391,0.292750,0.283619,0.278362,0.271721,0.267571,0.266187,0.263697,0.258439,0.244328,0.241284,0.239624,0.235196,0.230493,0.225512,0.219978,0.218318,0.218041,0.213890,0.205589,0.200055,0.198949,0.193138,0.193968,0.193968,0.185667,0.184283,0.189264,0.189541,0.203099,0.219978,0.228002,0.208356,0.201439,0.207526,0.204759,0.196182,0.193691,0.188711,0.182900,0.175982,0.172108,0.167405,0.163531,0.160487,0.162147,0.157997,0.154123,0.151909,0.149696,0.148035,0.145822,0.144438,0.142778,0.140841,0.141118,0.141118,0.140011,0.140288,0.140288,0.141395,0.142225,0.142778,0.143885,0.143608,0.142225,0.144162,0.141948,0.144438,0.151079,0.157443,0.168788,0.175706,0.184837,0.201162,0.185667,0.174599,0.170172,0.174322,0.166298,0.158827,0.155230,0.152463,0.150802,0.151633,0.154676,0.153569,0.160764,0.162701,0.165744,0.172108,0.167681,0.165468,0.161871,0.156060,0.155783,0.152739,0.156060,0.157443,0.166298,0.176812,0.168788,0.162977,0.149419,0.144162,0.154953,0.162977,0.163531,0.156890,0.149696,0.137244,0.129773,0.134477,0.142225,0.154676,0.145822,0.157443,0.163807,0.146099,0.149972,0.149972,0.163254,0.159380,0.148035,0.146929,0.144715,0.134200,0.126176,0.126729,0.126729,0.127559,0.128943,0.127559,0.125346,0.125623,0.125899,0.123409,0.121749,0.122579,0.123409,0.122025,0.121472,0.121749,0.119812,0.120642,0.129773,0.133647,0.131157,0.130880,0.133924,0.146375,0.157997,0.157167,0.155783,0.141395,0.131157,0.124239,0.121749,0.127283,0.132540,0.122579,0.116215,0.112894,0.133924,0.142778,0.128666,0.129773,0.140841,0.148035,0.162977,0.171278,0.162147,0.167681,0.198672,0.212784,0.187050,0.166574,0.161871,0.160487,0.143055,0.133647,0.147482,0.174045,0.196182,0.223575,0.202822,0.202269,0.188711,0.191754,0.189264
0.106807,0.107914,0.112618,0.113171,0.107637,0.105977,0.106807,0.108744,0.109851,0.111234,0.105423,0.105147,0.109851,0.114278,0.115108,0.113724,0.112894,0.114555,0.119535,0.124239,0.129773,0.135307,0.143885,0.148035,0.145822,0.151079,0.158273,0.161871,0.167681,0.167681,0.158827,0.153846,0.154400,0.149972,0.150526,0.162147,0.157443,0.161871,0.170172,0.191478,0.220255,0.236580,0.201439,0.169065,0.172939,0.180133,0.177366,0.194245,0.216381,0.208633,0.195351,0.205589,0.221361,0.223852,0.219424,0.207526,0.189541,0.168235,0.155783,0.166021,0.182346,0.209186,0.215827,0.218318,0.201439,0.186774,0.174322,0.164084,0.157720,0.152739,0.153569,0.173769,0.209463,0.224958,0.203929,0.189817,0.175152,0.171555,0.167128,0.166851,0.162147,0.159934,0.159657,0.157167,0.155506,0.156890,0.164914,0.173769,0.183177,0.194521,0.197012,0.192584,0.194798,0.202269,0.194245,0.186774,0.182623,0.182346,0.184560,0.192308,0.204206,0.214444,0.220531,0.226342,0.218041,0.207250,0.199779,0.210570,0.222745,0.232429,0.238517,0.245158,0.252352,0.256226,0.261483,0.268124,0.271998,0.277532,0.283619,0.283896,0.280852,0.281959,0.284449,0.286110,0.291367,0.291644,0.289707,0.285279,0.281682,0.280576,0.281406,0.283066,0.285556,0.288877,0.292197,0.299945,0.314056,0.327061,0.338960,0.337576,0.322081,0.308522,0.300775,0.287493,0.278639,0.274765,0.273381,0.268401,0.262313,0.249862,0.241284,0.237687,0.234920,0.231323,0.228556,0.225789,0.223575,0.219148,0.214444,0.210847,0.208633,0.204759,0.197288,0.197842,0.197288,0.191478,0.192584,0.198949,0.208356,0.226895,0.235750,0.248201,0.258716,0.247648,0.240454,0.248755,0.238240,0.218041,0.225789,0.212784,0.202546,0.187050,0.177089,0.170448,0.166851,0.164914,0.162424,0.159657,0.157997,0.157997,0.159103,0.154400,0.148035,0.144162,0.142501,0.141395,0.140011,0.139458,0.139181,0.138628,0.140011,0.141395,0.141118,0.141948,0.142778,0.142225,0.141118,0.141948,0.141948,0.141671,0.146652,0.150802,0.156890,0.166851,0.182346,0.191201,0.190371,0.182346,0.183453,0.189541,0.172662,0.172108,0.163807,0.156613,0.151633,0.149419,0.151079,0.153569,0.161317,0.166298,0.155230,0.164914,0.168511,0.164361,0.157997,0.160487,0.158273,0.157997,0.165468,0.162701,0.173215,0.171002,0.164361,0.153016,0.150526,0.153569,0.163531,0.156890,0.154400,0.148312,0.141671,0.143885,0.145545,0.128113,0.130603,0.135030,0.144162,0.158550,0.141118,0.139181,0.139458,0.151356,0.165744,0.182900,0.171555,0.159934,0.151356,0.142225,0.134477,0.126176,0.125069,0.123962,0.123409,0.122856,0.122856,0.123409,0.123132,0.121195,0.119812,0.120089,0.119258,0.119535,0.119812,0.119258,0.118982,0.123686,0.129496,0.135030,0.127836,0.122579,0.127283,0.141395,0.144715,0.149696,0.160210,0.151079,0.149142,0.138074,0.133094,0.123686,0.119535,0.125069,0.116768,0.110957,0.133370,0.131710,0.126176,0.145268,0.158550,0.169618,0.166574,0.149696,0.146929,0.168235,0.196182,0.208356,0.195075,0.174045,0.144715,0.134200,0.128666,0.139181,0.166851,0.189541,0.210570,0.213337,0.193138,0.170725,0.168788,0.164361,0.163531
0.105700,0.106807,0.102933,0.102380,0.102933,0.103210,0.103210,0.104040,0.104870,0.104593,0.106530,0.105147,0.107637,0.108744,0.108744,0.110404,0.110681,0.118152,0.123686,0.124516,0.126453,0.133094,0.135861,0.137244,0.144992,0.152186,0.153016,0.150526,0.154676,0.157997,0.160487,0.154123,0.149142,0.151909,0.156060,0.167405,0.181240,0.188987,0.197012,0.216934,0.250415,0.240730,0.204759,0.172108,0.170172,0.193968,0.198118,0.194521,0.214444,0.219978,0.213060,0.222191,0.228832,0.234920,0.226342,0.209186,0.189817,0.169618,0.161871,0.173215,0.189817,0.213614,0.217488,0.223022,0.205866,0.196458,0.180133,0.172939,0.161040,0.156613,0.153846,0.156613,0.179579,0.210017,0.227172,0.211677,0.196735,0.184560,0.177919,0.178473,0.174045,0.171278,0.167405,0.162147,0.161317,0.160487,0.159380,0.159657,0.169341,0.179579,0.194798,0.202822,0.208356,0.205036,0.211123,0.204759,0.193414,0.190647,0.189541,0.190371,0.191754,0.204759,0.211954,0.220255,0.221915,0.210847,0.200609,0.206419,0.221085,0.229662,0.236303,0.242944,0.250415,0.259270,0.264527,0.267294,0.272551,0.276978,0.278362,0.278639,0.277809,0.278085,0.281129,0.282512,0.285556,0.287216,0.289153,0.288046,0.286110,0.285556,0.284726,0.285833,0.289983,0.291920,0.294687,0.312950,0.334809,0.349751,0.358052,0.348367,0.333702,0.317100,0.311843,0.302712,0.291920,0.285279,0.283896,0.274488,0.263143,0.249585,0.232983,0.233813,0.235196,0.232429,0.230216,0.228556,0.224128,0.219148,0.213337,0.211677,0.209186,0.200885,0.198949,0.198395,0.193414,0.201162,0.216934,0.240177,0.245158,0.263420,0.270614,0.274765,0.286940,0.280576,0.267017,0.256226,0.246541,0.241007,0.229939,0.216934,0.201716,0.211677,0.196182,0.186774,0.175982,0.171278,0.166574,0.162977,0.161317,0.159934,0.164361,0.153569,0.146929,0.144715,0.142225,0.141671,0.140564,0.138904,0.138904,0.138628,0.138628,0.139458,0.140011,0.140841,0.141671,0.141395,0.140564,0.140841,0.141395,0.140011,0.143885,0.147205,0.150802,0.158273,0.170448,0.182900,0.179856,0.188434,0.188711,0.195351,0.193414,0.183730,0.171002,0.162147,0.156060,0.151909,0.147205,0.149142,0.159657,0.167958,0.156336,0.154953,0.166298,0.164084,0.162424,0.161871,0.157997,0.162147,0.169065,0.173492,0.174322,0.169618,0.162701,0.159380,0.157720,0.167128,0.161317,0.157720,0.150802,0.148589,0.146099,0.155506,0.169895,0.158827,0.144992,0.128390,0.130050,0.136967,0.131433,0.143885,0.151079,0.160764,0.174322,0.175152,0.168235,0.153016,0.150249,0.149142,0.136967,0.134754,0.131987,0.126176,0.123962,0.122856,0.122302,0.121749,0.120919,0.119258,0.118982,0.119258,0.118982,0.118152,0.117322,0.118152,0.117045,0.124239,0.125346,0.128943,0.128390,0.120919,0.123686,0.131157,0.132263,0.143885,0.153016,0.159657,0.164084,0.159934,0.152186,0.137521,0.133370,0.121472,0.119535,0.109297,0.120365,0.129773,0.122579,0.134477,0.153846,0.171002,0.151909,0.132817,0.146099,0.162701,0.193414,0.191478,0.171555,0.166574,0.140011,0.123962,0.142501,0.164361,0.166574,0.166298,0.171555,0.184560,0.174322,0.162147,0.144715,0.143885,0.138904
0.103210,0.102380,0.102103,0.102380,0.103486,0.103210,0.103486,0.103486,0.105977,0.105147,0.105423,0.108190,0.112894,0.114831,0.114555,0.118982,0.120089,0.115385,0.117598,0.124239,0.121472,0.129220,0.134754,0.132263,0.134200,0.132263,0.133370,0.135307,0.139458,0.141948,0.143885,0.150526,0.158273,0.162701,0.167405,0.165191,0.193138,0.221361,0.244328,0.257056,0.274211,0.240730,0.202546,0.193691,0.176536,0.194245,0.204206,0.208356,0.224405,0.223575,0.212784,0.209463,0.214444,0.222191,0.209186,0.205589,0.188711,0.168788,0.169618,0.186220,0.207250,0.219148,0.223298,0.226065,0.214167,0.203099,0.188987,0.183730,0.170448,0.162424,0.159657,0.155230,0.164638,0.186497,0.215827,0.231046,0.211954,0.196182,0.204483,0.200885,0.194798,0.185113,0.177642,0.171002,0.167128,0.164914,0.162424,0.162977,0.161594,0.169895,0.176536,0.194245,0.207803,0.208910,0.221361,0.224682,0.221915,0.208080,0.208356,0.201439,0.197842,0.194521,0.199779,0.205866,0.209463,0.203376,0.193691,0.205866,0.217211,0.226342,0.234366,0.243221,0.249585,0.257333,0.266464,0.269784,0.275872,0.277532,0.275872,0.273935,0.273935,0.274211,0.275318,0.278639,0.281959,0.284449,0.285833,0.286663,0.286940,0.287493,0.288600,0.291367,0.295517,0.298561,0.301882,0.318207,0.330382,0.341727,0.348921,0.344494,0.337299,0.327892,0.320421,0.312673,0.304925,0.295517,0.290537,0.283066,0.262867,0.238794,0.243774,0.242391,0.241007,0.235750,0.233260,0.231046,0.225512,0.219978,0.214444,0.210017,0.203929,0.203652,0.208080,0.213060,0.210017,0.231876,0.254566,0.264804,0.269231,0.271998,0.270338,0.268954,0.275318,0.277255,0.268401,0.251245,0.242944,0.233260,0.221638,0.213614,0.225235,0.234090,0.211954,0.198672,0.193691,0.185944,0.176536,0.169618,0.165191,0.157720,0.154676,0.150802,0.145545,0.142778,0.140564,0.139734,0.139734,0.139734,0.138351,0.137521,0.136967,0.138351,0.139181,0.140288,0.140011,0.140564,0.139181,0.140564,0.139734,0.138628,0.142225,0.145268,0.147205,0.152463,0.161040,0.176259,0.170172,0.171832,0.176812,0.190094,0.204206,0.193414,0.180686,0.167128,0.161317,0.155230,0.151633,0.146652,0.150249,0.160210,0.157167,0.151633,0.162147,0.164361,0.169618,0.165468,0.163254,0.169618,0.170725,0.177366,0.181516,0.177919,0.172939,0.166851,0.162147,0.165191,0.167405,0.163531,0.159103,0.160764,0.153293,0.160487,0.180410,0.173769,0.155783,0.143608,0.126729,0.133924,0.144438,0.155230,0.159380,0.162701,0.174875,0.164084,0.157720,0.151079,0.140288,0.146375,0.143331,0.140841,0.145822,0.140841,0.130880,0.127836,0.127283,0.126453,0.125069,0.121749,0.123962,0.118705,0.117598,0.117322,0.116215,0.117045,0.116491,0.123962,0.122302,0.119258,0.120365,0.115385,0.118705,0.118152,0.130050,0.133647,0.135861,0.132817,0.154676,0.165191,0.159657,0.155230,0.140564,0.133924,0.118705,0.109020,0.125346,0.121472,0.123132,0.143331,0.160487,0.161594,0.141118,0.124792,0.146375,0.164638,0.182623,0.175429,0.159657,0.155506,0.128943,0.124516,0.146099,0.140564,0.138074,0.148035,0.167958,0.189264,0.173215,0.157167,0.146929,0.139458,0.132817
0.101273,0.101550,0.101826,0.102103,0.103210,0.105423,0.111234,0.114831,0.114555,0.116215,0.116491,0.116491,0.116215,0.121472,0.122856,0.123962,0.126729,0.128666,0.122302,0.124516,0.127006,0.122579,0.125899,0.128666,0.136414,0.143885,0.148866,0.152739,0.146099,0.158273,0.166574,0.168788,0.173492,0.182346,0.200885,0.191478,0.196182,0.234643,0.254289,0.255119,0.275041,0.246541,0.219148,0.217764,0.197288,0.186220,0.197565,0.206973,0.215827,0.218594,0.209740,0.201992,0.211123,0.222468,0.211954,0.193691,0.180686,0.170448,0.176259,0.184283,0.199502,0.216104,0.230216,0.230769,0.215274,0.210570,0.214167,0.195628,0.177089,0.174045,0.163807,0.158827,0.159934,0.174322,0.199225,0.232429,0.236857,0.232429,0.245988,0.242391,0.228279,0.207803,0.193138,0.182070,0.174599,0.169895,0.165744,0.164914,0.162424,0.162701,0.167128,0.175706,0.182900,0.193138,0.207250,0.231876,0.242944,0.239070,0.232706,0.219701,0.208633,0.200055,0.198118,0.207250,0.207803,0.206419,0.191754,0.203099,0.222745,0.232706,0.232429,0.234643,0.248755,0.260376,0.268677,0.274488,0.279192,0.276425,0.271998,0.270061,0.269784,0.269507,0.273381,0.276978,0.279745,0.282236,0.283619,0.285003,0.286663,0.288323,0.292474,0.296348,0.302435,0.306032,0.311289,0.315163,0.325955,0.338406,0.342833,0.343387,0.337576,0.331212,0.323464,0.316823,0.307692,0.294134,0.281959,0.271998,0.260100,0.249862,0.247925,0.247371,0.245158,0.240177,0.236857,0.234920,0.224682,0.222468,0.224128,0.228279,0.229109,0.226895,0.229109,0.223852,0.224682,0.249032,0.262313,0.268677,0.271168,0.270061,0.265357,0.261483,0.255119,0.248201,0.249308,0.264527,0.250968,0.239624,0.241284,0.248478,0.224405,0.208633,0.203376,0.209186,0.222468,0.222745,0.197288,0.174875,0.165468,0.158550,0.155783,0.150802,0.146375,0.142778,0.141395,0.139458,0.139181,0.138628,0.138351,0.136967,0.136691,0.136137,0.138351,0.139734,0.139181,0.139181,0.138074,0.138628,0.139458,0.138074,0.139181,0.146652,0.144438,0.146929,0.153293,0.164361,0.163254,0.171832,0.178196,0.195905,0.204759,0.192861,0.186220,0.175152,0.170448,0.162977,0.155230,0.149696,0.145268,0.147205,0.153293,0.146652,0.154123,0.163807,0.180133,0.172662,0.168235,0.168788,0.171555,0.181240,0.197842,0.204206,0.185390,0.173492,0.161594,0.156890,0.156060,0.162424,0.163531,0.161317,0.162701,0.162424,0.178473,0.176536,0.166851,0.151633,0.130603,0.125069,0.139181,0.142778,0.143331,0.153569,0.165191,0.165191,0.155783,0.143331,0.135861,0.139734,0.143885,0.136967,0.141395,0.146375,0.142778,0.140288,0.144715,0.143885,0.141395,0.133647,0.133094,0.125346,0.118982,0.116768,0.116215,0.115938,0.115938,0.117322,0.120089,0.117322,0.112894,0.111234,0.111511,0.110127,0.115108,0.118428,0.121472,0.127283,0.139458,0.152463,0.141948,0.149142,0.150802,0.139734,0.116768,0.107360,0.118705,0.122856,0.133647,0.139181,0.141671,0.156336,0.130603,0.118152,0.138904,0.151356,0.155783,0.151633,0.152739,0.134200,0.121472,0.120642,0.125069,0.131157,0.144715,0.162424,0.170725,0.173492,0.184560,0.166298,0.151079,0.142225,0.133647
0.100443,0.101273,0.102380,0.104317,0.107637,0.109020,0.110681,0.113724,0.114278,0.115108,0.113448,0.115661,0.115938,0.118705,0.123962,0.122302,0.122856,0.125623,0.127559,0.136691,0.143055,0.143331,0.146929,0.134477,0.151079,0.154676,0.160210,0.173492,0.170448,0.162424,0.179026,0.198118,0.200055,0.217488,0.237963,0.240177,0.229939,0.235473,0.233260,0.235473,0.238517,0.245988,0.236027,0.230493,0.221361,0.206973,0.201992,0.212230,0.216104,0.208633,0.201439,0.199502,0.210570,0.224405,0.213890,0.195905,0.180963,0.174322,0.178196,0.188434,0.200609,0.215274,0.223298,0.232153,0.228832,0.229939,0.221915,0.198118,0.197842,0.185667,0.172662,0.165191,0.160487,0.172939,0.195351,0.228279,0.254842,0.267017,0.283619,0.288046,0.268124,0.239070,0.213890,0.201716,0.186220,0.175152,0.170172,0.169895,0.167405,0.167128,0.164638,0.172108,0.196735,0.205036,0.202822,0.210847,0.223575,0.226619,0.244328,0.236580,0.223852,0.215827,0.210570,0.208356,0.214721,0.216104,0.195628,0.197012,0.212507,0.211123,0.223575,0.241561,0.246265,0.255396,0.263420,0.271168,0.276148,0.273105,0.268124,0.264250,0.263420,0.264804,0.265634,0.267847,0.274488,0.280852,0.282236,0.283343,0.284726,0.288046,0.290814,0.296624,0.304925,0.311566,0.315717,0.320421,0.327061,0.332872,0.342557,0.351688,0.340620,0.329552,0.323188,0.314887,0.298561,0.278915,0.271998,0.269231,0.262867,0.257333,0.254012,0.250692,0.246265,0.244328,0.240454,0.247095,0.258163,0.261206,0.272274,0.272274,0.259546,0.247648,0.239347,0.234090,0.249308,0.265080,0.274211,0.273658,0.271444,0.267571,0.260653,0.255119,0.248201,0.237410,0.231876,0.238517,0.236027,0.237963,0.236027,0.250692,0.228279,0.214444,0.219978,0.232429,0.262313,0.250968,0.227449,0.192031,0.168235,0.160487,0.157167,0.151356,0.146929,0.144162,0.143055,0.140564,0.139734,0.137797,0.137797,0.137797,0.136414,0.135307,0.135861,0.138904,0.141395,0.137521,0.136691,0.137797,0.140011,0.139458,0.136691,0.141948,0.142225,0.144715,0.148589,0.153569,0.163254,0.173215,0.181240,0.192861,0.207250,0.197288,0.187604,0.179856,0.178196,0.174322,0.166851,0.159657,0.152186,0.146375,0.142501,0.146375,0.150802,0.166851,0.181793,0.172385,0.165191,0.161040,0.167128,0.176259,0.186774,0.201162,0.192031,0.175429,0.162701,0.154676,0.148312,0.153293,0.157720,0.148589,0.154676,0.165191,0.178473,0.166574,0.156336,0.154676,0.132263,0.122025,0.132263,0.137244,0.146929,0.149696,0.150802,0.147759,0.144715,0.139734,0.134200,0.133370,0.138904,0.134200,0.135584,0.141395,0.142225,0.137797,0.138628,0.141948,0.144992,0.138351,0.138074,0.135030,0.126729,0.118428,0.115938,0.114831,0.115108,0.114278,0.114278,0.113171,0.112894,0.111511,0.111511,0.110681,0.109851,0.108744,0.110404,0.115385,0.122856,0.138628,0.130880,0.136414,0.143055,0.148589,0.129773,0.109020,0.116215,0.121195,0.123686,0.126453,0.141948,0.146929,0.142225,0.116215,0.130880,0.130327,0.131987,0.133370,0.127836,0.122856,0.115385,0.127836,0.137244,0.141948,0.141948,0.149142,0.161040,0.173215,0.185113,0.175706,0.164914,0.157720,0.138904
0.101550,0.103763,0.104317,0.106253,0.107084,0.107360,0.108467,0.109574,0.110404,0.111511,0.113724,0.117598,0.118152,0.119535,0.122579,0.126453,0.131710,0.134200,0.130050,0.157443,0.174322,0.174322,0.159657,0.140564,0.147482,0.158827,0.181793,0.202269,0.188434,0.183177,0.212507,0.236027,0.245711,0.257886,0.276148,0.275318,0.266740,0.258439,0.241007,0.211954,0.213060,0.222468,0.234366,0.235750,0.224682,0.215274,0.212784,0.210017,0.210293,0.203652,0.195075,0.200609,0.211677,0.213890,0.203376,0.191201,0.192031,0.188157,0.188157,0.199502,0.205866,0.216381,0.224958,0.231599,0.236303,0.239070,0.228002,0.226619,0.216104,0.186497,0.172662,0.175429,0.164638,0.167681,0.184007,0.208910,0.231046,0.237963,0.268124,0.299391,0.295241,0.270614,0.241007,0.210570,0.192584,0.178196,0.181516,0.178749,0.176259,0.169895,0.169895,0.169065,0.175982,0.180963,0.188711,0.192861,0.198118,0.211400,0.220255,0.222468,0.224405,0.219424,0.212230,0.198949,0.206419,0.214997,0.197012,0.195905,0.203376,0.210293,0.215274,0.232706,0.247371,0.246818,0.248201,0.249585,0.259546,0.259823,0.256226,0.256502,0.258163,0.259546,0.264527,0.270338,0.276425,0.279469,0.279745,0.280022,0.282236,0.283896,0.288323,0.294964,0.307139,0.314333,0.321251,0.323464,0.327338,0.334532,0.343940,0.355838,0.355008,0.330105,0.306032,0.291367,0.281682,0.278085,0.270614,0.267294,0.263973,0.260376,0.257333,0.255119,0.250692,0.248201,0.258439,0.280852,0.302158,0.301882,0.288323,0.275318,0.263420,0.256226,0.252629,0.262867,0.283896,0.294964,0.287770,0.276425,0.271998,0.265910,0.258163,0.251799,0.244881,0.235750,0.227449,0.222745,0.217764,0.219424,0.226895,0.226895,0.242391,0.242391,0.238240,0.266464,0.263697,0.236303,0.213337,0.203376,0.177366,0.161871,0.155506,0.150526,0.147482,0.144992,0.142778,0.141395,0.140011,0.138904,0.137797,0.136967,0.136967,0.136414,0.134477,0.136691,0.138074,0.135584,0.136137,0.138074,0.136137,0.136967,0.136414,0.138628,0.140011,0.141948,0.143885,0.148312,0.156336,0.165191,0.173215,0.185390,0.204206,0.199225,0.187880,0.178196,0.172662,0.169895,0.164638,0.155230,0.153569,0.150802,0.143885,0.141395,0.148035,0.166298,0.176812,0.167958,0.158550,0.157167,0.163531,0.171555,0.184283,0.197288,0.201162,0.180133,0.165744,0.154676,0.148035,0.142778,0.147205,0.143608,0.149142,0.160764,0.168235,0.169341,0.154400,0.138351,0.130880,0.121195,0.128390,0.137244,0.148589,0.154953,0.157720,0.151633,0.140841,0.130880,0.130050,0.130327,0.133370,0.130880,0.133094,0.136967,0.138351,0.135030,0.134200,0.138074,0.139458,0.132540,0.127006,0.126176,0.122302,0.117598,0.120365,0.117322,0.114278,0.114001,0.112894,0.117045,0.125346,0.125623,0.121472,0.118982,0.117045,0.110681,0.107637,0.107084,0.114278,0.119258,0.120089,0.121195,0.131157,0.133094,0.126729,0.117875,0.106253,0.111511,0.114831,0.117045,0.130603,0.125623,0.120919,0.108744,0.110681,0.115661,0.121195,0.124792,0.120365,0.114001,0.121749,0.128943,0.127559,0.135861,0.145822,0.157997,0.170725,0.189817,0.194245,0.195351,0.181240,0.161040,0.151356
0.106253,0.106807,0.107637,0.107914,0.108467,0.108744,0.109851,0.110957,0.111787,0.113448,0.115108,0.117322,0.121472,0.126729,0.132817,0.140564,0.148035,0.148866,0.135861,0.150249,0.166298,0.161040,0.163254,0.146652,0.157720,0.171002,0.179579,0.188711,0.220255,0.221915,0.232706,0.254289,0.261206,0.278639,0.258993,0.254842,0.257056,0.251799,0.216104,0.216381,0.240177,0.235473,0.229386,0.231876,0.227726,0.216934,0.204759,0.206143,0.202546,0.192031,0.205313,0.214167,0.216381,0.213614,0.203929,0.206143,0.203099,0.200055,0.206419,0.212507,0.224682,0.231876,0.238794,0.241284,0.239347,0.239070,0.239347,0.236580,0.214721,0.194245,0.189817,0.181240,0.170448,0.165468,0.181793,0.213890,0.238517,0.245434,0.253182,0.259546,0.264804,0.275872,0.255119,0.224682,0.200055,0.182070,0.190647,0.193414,0.184837,0.174045,0.172939,0.168788,0.172662,0.173492,0.177089,0.181516,0.185944,0.192031,0.196182,0.200332,0.202822,0.216381,0.208633,0.196182,0.195905,0.201162,0.194521,0.195628,0.212784,0.225789,0.231323,0.235196,0.234920,0.229386,0.234366,0.242944,0.244881,0.246541,0.251245,0.252905,0.254842,0.254842,0.259823,0.267017,0.276702,0.275041,0.275595,0.276425,0.278085,0.279192,0.283896,0.298284,0.324294,0.340066,0.329828,0.328445,0.332319,0.336469,0.345324,0.351411,0.353902,0.333149,0.298838,0.289153,0.285003,0.278362,0.272828,0.268954,0.267017,0.263143,0.259823,0.258163,0.256226,0.263420,0.288323,0.312396,0.332042,0.330382,0.312396,0.291090,0.275318,0.280022,0.278085,0.296624,0.317100,0.310183,0.296071,0.284449,0.274211,0.266187,0.259823,0.252352,0.241561,0.229939,0.224128,0.216104,0.215827,0.204759,0.204759,0.207250,0.229386,0.235750,0.248755,0.265910,0.252905,0.227172,0.208080,0.191201,0.175152,0.162977,0.156060,0.151633,0.147759,0.144715,0.142778,0.141395,0.139734,0.139181,0.138628,0.138351,0.138074,0.136967,0.134477,0.133647,0.134754,0.133924,0.134754,0.137797,0.135307,0.133924,0.134754,0.136137,0.137521,0.138904,0.140841,0.144162,0.148589,0.158550,0.173492,0.177089,0.187327,0.195628,0.185944,0.180686,0.174875,0.172108,0.167405,0.164638,0.157997,0.149696,0.143055,0.140288,0.145545,0.161040,0.157997,0.157443,0.150526,0.155783,0.160487,0.166021,0.180133,0.188434,0.196735,0.179303,0.164638,0.153846,0.146929,0.141671,0.137521,0.138904,0.143608,0.150526,0.152186,0.151633,0.146375,0.138074,0.129773,0.121749,0.123686,0.130603,0.139458,0.139734,0.143885,0.143055,0.135030,0.130603,0.125069,0.131987,0.133647,0.129773,0.128666,0.131157,0.132263,0.132263,0.130327,0.133924,0.138074,0.140841,0.133924,0.125899,0.122579,0.119812,0.129220,0.134200,0.129496,0.121749,0.129220,0.143608,0.148589,0.150526,0.144992,0.133094,0.129220,0.126729,0.115938,0.107084,0.106807,0.107637,0.111234,0.113448,0.114555,0.115938,0.114278,0.108744,0.104593,0.104317,0.111234,0.106253,0.107360,0.107360,0.106807,0.103210,0.107914,0.117875,0.125346,0.119812,0.110957,0.111511,0.117322,0.121195,0.133370,0.151909,0.158273,0.166298,0.177366,0.170448,0.171555,0.168511,0.174599,0.169895,0.153016
0.104593,0.106530,0.107637,0.109297,0.110957,0.111787,0.113171,0.114001,0.114555,0.117598,0.119258,0.120089,0.127836,0.138904,0.162424,0.179303,0.175706,0.158273,0.144992,0.150249,0.157167,0.173769,0.172108,0.167681,0.159657,0.163254,0.173215,0.185390,0.213337,0.255949,0.252075,0.234366,0.253459,0.266464,0.264250,0.230769,0.214444,0.225512,0.194521,0.221915,0.242391,0.248478,0.229939,0.213614,0.221361,0.217211,0.206419,0.200055,0.193691,0.198672,0.214444,0.222468,0.219148,0.205036,0.205036,0.209186,0.205866,0.208356,0.219148,0.230769,0.238240,0.245158,0.249032,0.241284,0.234090,0.236857,0.251799,0.247371,0.240177,0.223575,0.213890,0.199502,0.182900,0.169618,0.175982,0.198118,0.201992,0.213614,0.221638,0.229109,0.239624,0.262313,0.254566,0.226065,0.205866,0.201162,0.195351,0.203929,0.185667,0.182070,0.178473,0.174875,0.174875,0.185944,0.181240,0.188711,0.194521,0.193968,0.200332,0.208356,0.214444,0.213337,0.209186,0.198949,0.191201,0.191478,0.191478,0.197565,0.205589,0.213890,0.218041,0.225512,0.227726,0.228279,0.232429,0.242391,0.243221,0.244604,0.247095,0.247095,0.248201,0.249862,0.258716,0.267294,0.270061,0.269784,0.271998,0.273935,0.275872,0.276702,0.285556,0.308799,0.327061,0.342557,0.347261,0.341450,0.337853,0.340897,0.344494,0.348921,0.344770,0.325401,0.308246,0.299668,0.291644,0.279469,0.275595,0.271168,0.269784,0.265634,0.262313,0.263420,0.270614,0.276978,0.299115,0.342280,0.362203,0.361926,0.352795,0.343387,0.333149,0.325955,0.325955,0.322358,0.315717,0.306032,0.298008,0.290260,0.282512,0.275872,0.264250,0.251799,0.237133,0.223852,0.217211,0.208080,0.195075,0.200885,0.192031,0.193138,0.203099,0.218041,0.216934,0.238517,0.219978,0.221638,0.221638,0.200609,0.179026,0.161594,0.154953,0.150526,0.146652,0.144438,0.142778,0.141395,0.140011,0.138628,0.137521,0.137244,0.137521,0.136414,0.137244,0.134200,0.132540,0.131987,0.131710,0.133647,0.132817,0.131710,0.133094,0.135307,0.135861,0.136414,0.138628,0.140288,0.143608,0.155230,0.161594,0.167681,0.177366,0.187327,0.199502,0.187880,0.178196,0.169618,0.165191,0.159380,0.150802,0.146929,0.150526,0.145268,0.138904,0.145268,0.146099,0.146652,0.146099,0.151079,0.155230,0.161871,0.170725,0.182070,0.188434,0.189264,0.173215,0.159103,0.149419,0.142778,0.139181,0.133924,0.135861,0.135861,0.139458,0.136137,0.135030,0.134200,0.128943,0.122579,0.120365,0.124516,0.128943,0.131433,0.132540,0.131157,0.128390,0.125346,0.121749,0.126176,0.130050,0.126176,0.125623,0.133370,0.135861,0.132817,0.127836,0.128666,0.133094,0.137797,0.140564,0.133094,0.125069,0.121195,0.125346,0.131987,0.138351,0.139181,0.142501,0.146099,0.142225,0.150802,0.159380,0.156060,0.149972,0.132817,0.128113,0.114555,0.106253,0.105977,0.105423,0.106253,0.105700,0.105700,0.105977,0.105977,0.102656,0.102933,0.103486,0.102103,0.100719,0.098506,0.099336,0.100443,0.107084,0.108744,0.121195,0.115938,0.107360,0.110681,0.119258,0.133647,0.141671,0.138904,0.143608,0.152739,0.164638,0.160764,0.151633,0.159657,0.174875,0.170448,0.149972
0.107914,0.107914,0.109020,0.110681,0.113448,0.115938,0.117322,0.118705,0.119812,0.120642,0.120642,0.125069,0.140564,0.153293,0.164914,0.165468,0.183730,0.167681,0.146929,0.154953,0.172385,0.184007,0.197842,0.198118,0.179303,0.180410,0.186220,0.209186,0.226619,0.253735,0.260100,0.240177,0.225512,0.216934,0.212230,0.203929,0.193968,0.193968,0.187050,0.231876,0.263697,0.248478,0.223575,0.221638,0.210570,0.198118,0.193691,0.188987,0.194245,0.206419,0.218594,0.221361,0.211400,0.197842,0.201716,0.201439,0.210017,0.221085,0.231599,0.241007,0.246818,0.249585,0.242114,0.241007,0.233260,0.248201,0.257609,0.255672,0.259823,0.255672,0.249032,0.233260,0.205313,0.179579,0.173492,0.182346,0.194245,0.215274,0.226895,0.234366,0.243774,0.259546,0.249862,0.233813,0.223298,0.211677,0.198949,0.193138,0.195628,0.198672,0.185667,0.184283,0.173769,0.179026,0.189817,0.201439,0.205036,0.216657,0.223298,0.224128,0.218041,0.205866,0.200609,0.201162,0.201162,0.195351,0.208356,0.212230,0.215274,0.221361,0.222468,0.225789,0.229386,0.229939,0.235196,0.242391,0.242391,0.242944,0.244051,0.244881,0.244051,0.250138,0.260376,0.263697,0.265080,0.265634,0.269784,0.272828,0.274211,0.277532,0.287216,0.302435,0.311566,0.322358,0.343110,0.356669,0.349751,0.345324,0.344217,0.343664,0.341727,0.326785,0.315440,0.313226,0.307139,0.295517,0.284173,0.278915,0.277532,0.276425,0.288323,0.285833,0.281959,0.283619,0.287770,0.320144,0.360542,0.336746,0.328168,0.325678,0.320421,0.307969,0.302712,0.301882,0.305479,0.306862,0.305479,0.298008,0.286110,0.276425,0.268124,0.253735,0.236303,0.219978,0.209186,0.195905,0.184007,0.181793,0.187604,0.180963,0.187050,0.203376,0.195351,0.213890,0.206696,0.187327,0.190371,0.179579,0.164084,0.156336,0.153293,0.148866,0.146099,0.144438,0.142501,0.140841,0.139734,0.140011,0.138628,0.138904,0.138351,0.138351,0.135030,0.134754,0.135584,0.136691,0.136414,0.135307,0.130603,0.130603,0.131987,0.132817,0.133094,0.134200,0.136137,0.136691,0.140011,0.146375,0.150249,0.158550,0.169895,0.182070,0.193968,0.182900,0.169618,0.163531,0.159380,0.154953,0.157167,0.155506,0.163254,0.152463,0.139734,0.137797,0.140841,0.141948,0.148035,0.155230,0.165468,0.171832,0.175152,0.175982,0.188434,0.193968,0.184837,0.165191,0.156890,0.146099,0.139181,0.135584,0.133370,0.130327,0.128113,0.126453,0.126729,0.124792,0.123686,0.122025,0.118428,0.120089,0.123409,0.125346,0.125069,0.125069,0.123409,0.120919,0.120089,0.124239,0.124792,0.121195,0.124792,0.132540,0.136967,0.135584,0.128113,0.125069,0.127283,0.131433,0.132817,0.127283,0.123962,0.122025,0.127283,0.134754,0.136967,0.131433,0.130050,0.138351,0.131433,0.131433,0.136414,0.133647,0.132263,0.125346,0.114555,0.109851,0.110404,0.109851,0.104870,0.104593,0.104317,0.103486,0.104040,0.102933,0.101550,0.101273,0.100719,0.100166,0.099059,0.098506,0.097676,0.097952,0.097676,0.104040,0.112341,0.110681,0.105700,0.108744,0.115661,0.121749,0.128113,0.144992,0.150249,0.162147,0.151633,0.141671,0.141395,0.153846,0.167958,0.159380,0.149419
0.110957,0.111787,0.113171,0.114555,0.117322,0.121749,0.125346,0.130603,0.136414,0.145268,0.131710,0.124516,0.132817,0.143885,0.144992,0.155783,0.168788,0.154953,0.155783,0.172108,0.173215,0.177642,0.171002,0.169341,0.172385,0.185667,0.190094,0.195075,0.218041,0.245711,0.255672,0.240730,0.243774,0.252352,0.242391,0.238517,0.238794,0.210017,0.176812,0.220531,0.258163,0.248755,0.237133,0.233260,0.229662,0.212507,0.200332,0.183453,0.203099,0.199225,0.218041,0.214997,0.196735,0.199225,0.205313,0.208910,0.223575,0.233813,0.240454,0.246265,0.249032,0.250138,0.243498,0.234920,0.239900,0.256502,0.254842,0.255949,0.260376,0.260100,0.262313,0.253459,0.225235,0.192584,0.180133,0.205313,0.238517,0.247371,0.253459,0.257333,0.265634,0.281682,0.275041,0.247371,0.237687,0.224958,0.206973,0.197012,0.213614,0.211677,0.190371,0.201162,0.186497,0.177919,0.179303,0.186220,0.193968,0.204206,0.208080,0.210017,0.201992,0.196182,0.204206,0.208356,0.207803,0.210570,0.213337,0.213614,0.221085,0.221361,0.222191,0.227726,0.232706,0.232706,0.236303,0.238794,0.239900,0.241007,0.242114,0.248201,0.254566,0.258716,0.261206,0.261206,0.261206,0.264250,0.266740,0.268954,0.269784,0.281959,0.292197,0.297731,0.308522,0.323741,0.348921,0.355562,0.345324,0.335916,0.331765,0.334532,0.339513,0.341450,0.331765,0.324294,0.313503,0.304095,0.295794,0.286663,0.289707,0.295517,0.324294,0.337023,0.333702,0.315717,0.304925,0.319314,0.366906,0.355285,0.327615,0.315440,0.309906,0.301882,0.295241,0.291920,0.293027,0.303542,0.305202,0.298008,0.289983,0.281129,0.269231,0.246818,0.223575,0.221085,0.214444,0.205866,0.195351,0.184283,0.176536,0.174875,0.174599,0.179303,0.180133,0.186774,0.175982,0.170172,0.166298,0.160764,0.156060,0.152739,0.150526,0.148312,0.146099,0.144438,0.142501,0.140841,0.139734,0.139181,0.138628,0.139181,0.136414,0.134754,0.135584,0.136137,0.137797,0.139734,0.143331,0.141395,0.136414,0.131987,0.129496,0.131157,0.131433,0.132540,0.133647,0.133924,0.136691,0.141118,0.144992,0.152186,0.159657,0.166851,0.182900,0.184283,0.175429,0.173492,0.166021,0.162424,0.168511,0.171278,0.170172,0.155783,0.143331,0.135861,0.137244,0.143331,0.142778,0.157167,0.163254,0.169065,0.176536,0.183453,0.190924,0.182900,0.179856,0.177366,0.166851,0.152463,0.144715,0.143608,0.140288,0.135861,0.135861,0.127836,0.127006,0.126453,0.123409,0.119535,0.117045,0.117598,0.117875,0.120642,0.120365,0.119535,0.118428,0.118982,0.117322,0.119258,0.120919,0.119258,0.122856,0.125899,0.127559,0.130327,0.130603,0.124792,0.123409,0.125899,0.128943,0.126176,0.123686,0.123962,0.127283,0.130050,0.130050,0.128113,0.122856,0.123962,0.122856,0.122579,0.121749,0.122856,0.118705,0.115938,0.113448,0.112618,0.117322,0.115385,0.110127,0.107360,0.103210,0.102656,0.101826,0.104040,0.103210,0.115108,0.118982,0.115385,0.125899,0.105977,0.097122,0.097122,0.097122,0.096569,0.103763,0.111511,0.110404,0.104040,0.114555,0.127559,0.128943,0.140841,0.136137,0.141395,0.133647,0.131157,0.141671,0.150526,0.153293,0.155506,0.153016
0.111234,0.113724,0.117598,0.120919,0.126453,0.136967,0.145268,0.151909,0.161871,0.154123,0.142778,0.129220,0.130880,0.136691,0.135307,0.140841,0.148312,0.149142,0.154953,0.156890,0.151633,0.155506,0.156336,0.172385,0.194521,0.199225,0.224405,0.211677,0.211123,0.207803,0.214997,0.207526,0.210293,0.242667,0.279192,0.281129,0.250415,0.219701,0.182070,0.199225,0.240730,0.245988,0.225789,0.221361,0.226619,0.208080,0.190094,0.194798,0.192031,0.195351,0.207526,0.194245,0.201992,0.212230,0.214997,0.218871,0.232429,0.242114,0.244604,0.247371,0.245158,0.237963,0.228279,0.229386,0.249308,0.244051,0.236580,0.252352,0.249585,0.232153,0.233260,0.232983,0.215827,0.194798,0.184007,0.207526,0.246265,0.282789,0.291090,0.303265,0.308522,0.314610,0.280022,0.260100,0.249862,0.228279,0.208910,0.203929,0.198672,0.210293,0.212230,0.212230,0.202269,0.189541,0.182070,0.181516,0.184837,0.188987,0.192861,0.194521,0.194245,0.202269,0.209186,0.210570,0.209463,0.213337,0.213337,0.215827,0.217211,0.221638,0.226619,0.229662,0.230493,0.231323,0.231876,0.232983,0.236857,0.239347,0.245158,0.249585,0.254289,0.255396,0.258439,0.260376,0.261483,0.262590,0.265080,0.267017,0.273381,0.281959,0.291090,0.299115,0.308522,0.323464,0.340897,0.334256,0.323188,0.321527,0.326785,0.332595,0.340343,0.349198,0.348921,0.342280,0.351965,0.355562,0.319867,0.303265,0.297454,0.303542,0.330659,0.363309,0.374654,0.370780,0.356115,0.348921,0.348644,0.349474,0.347261,0.328998,0.314056,0.298561,0.286386,0.285556,0.281959,0.280852,0.285279,0.280576,0.279745,0.284726,0.275041,0.241837,0.224128,0.213337,0.206143,0.203376,0.191478,0.182070,0.179579,0.170448,0.168235,0.169341,0.169895,0.167405,0.164638,0.162424,0.159934,0.155783,0.153293,0.151079,0.148866,0.147482,0.146099,0.145268,0.143608,0.142225,0.140011,0.139734,0.137797,0.136967,0.136967,0.138904,0.135861,0.136691,0.138351,0.140841,0.140288,0.138074,0.139458,0.139458,0.136691,0.130880,0.128113,0.130327,0.132263,0.133647,0.134477,0.136414,0.140011,0.145268,0.148589,0.162147,0.161317,0.167958,0.162424,0.167958,0.164914,0.166574,0.166021,0.177642,0.168511,0.154123,0.149419,0.138351,0.134200,0.135307,0.138351,0.146929,0.152739,0.164638,0.170172,0.181240,0.182070,0.175982,0.169065,0.163807,0.161594,0.162701,0.165468,0.166851,0.153569,0.145545,0.140564,0.138904,0.137521,0.129496,0.123132,0.118982,0.116491,0.117598,0.116491,0.115661,0.115938,0.115385,0.114555,0.115385,0.115385,0.114831,0.115385,0.115938,0.120919,0.121749,0.120919,0.124239,0.127836,0.130327,0.123409,0.118428,0.119812,0.122302,0.122302,0.120089,0.124792,0.123962,0.122579,0.120089,0.117045,0.116768,0.117875,0.117598,0.116768,0.115385,0.113448,0.111511,0.110127,0.110404,0.111787,0.110404,0.109851,0.112341,0.114278,0.116215,0.115108,0.122302,0.121749,0.151356,0.168788,0.152463,0.131710,0.114831,0.102380,0.097122,0.096569,0.096292,0.096292,0.102103,0.101273,0.101826,0.109574,0.114278,0.125346,0.130050,0.124516,0.123409,0.125069,0.132263,0.141395,0.144992,0.154676,0.167405,0.176812
0.110127,0.114278,0.121472,0.133094,0.138904,0.161317,0.181240,0.175152,0.166574,0.149696,0.136137,0.123686,0.125069,0.130327,0.127006,0.138074,0.143885,0.148312,0.162701,0.159657,0.162424,0.178749,0.193414,0.184007,0.175152,0.181793,0.202269,0.192584,0.195075,0.184007,0.188157,0.192584,0.192031,0.217211,0.244881,0.270614,0.270891,0.228279,0.188157,0.178749,0.217211,0.231323,0.214997,0.198672,0.205589,0.184837,0.177642,0.190924,0.192584,0.190924,0.200885,0.208910,0.201992,0.207250,0.219148,0.225789,0.239624,0.251245,0.255949,0.257056,0.247095,0.221361,0.209186,0.222468,0.222191,0.232983,0.239900,0.236580,0.220808,0.201162,0.195351,0.208080,0.215827,0.221638,0.216934,0.198672,0.223298,0.246541,0.263143,0.283896,0.290814,0.307692,0.304372,0.279192,0.255672,0.235750,0.227449,0.213337,0.195075,0.195628,0.212507,0.221085,0.216381,0.209186,0.190924,0.187050,0.195905,0.199502,0.201716,0.193414,0.202269,0.205866,0.209463,0.210570,0.210570,0.211400,0.213890,0.215827,0.218041,0.223298,0.224682,0.225235,0.228279,0.229386,0.231599,0.234643,0.238240,0.242667,0.245988,0.248755,0.251522,0.253459,0.255396,0.258716,0.262867,0.264527,0.266740,0.265080,0.270891,0.286386,0.292474,0.306032,0.318207,0.328445,0.328168,0.311289,0.309353,0.315440,0.324848,0.337023,0.358329,0.366076,0.380465,0.390149,0.392086,0.379081,0.353625,0.332042,0.313503,0.315163,0.346154,0.376868,0.385722,0.385999,0.372994,0.338129,0.327338,0.319314,0.314056,0.317100,0.320144,0.294134,0.283896,0.280852,0.276148,0.271998,0.267571,0.260930,0.260930,0.254566,0.263973,0.247095,0.224958,0.216104,0.220255,0.205866,0.195351,0.193138,0.185113,0.174322,0.167405,0.164914,0.163254,0.162701,0.160764,0.159103,0.157167,0.157720,0.159380,0.155230,0.149972,0.147205,0.146099,0.144992,0.144162,0.141671,0.141118,0.139734,0.137521,0.139181,0.141118,0.137521,0.138074,0.139181,0.140011,0.140841,0.140564,0.141118,0.141118,0.139181,0.136691,0.133370,0.130327,0.127559,0.130880,0.133094,0.132540,0.133370,0.135307,0.138904,0.142225,0.146652,0.149696,0.147759,0.147482,0.151356,0.148035,0.156613,0.154400,0.164084,0.160210,0.149419,0.143331,0.138904,0.135861,0.132817,0.135030,0.143055,0.153569,0.159657,0.161594,0.166851,0.170725,0.170172,0.164914,0.156890,0.155506,0.158827,0.157720,0.161594,0.155506,0.146375,0.145268,0.146652,0.138628,0.129496,0.122025,0.118705,0.116491,0.114831,0.115385,0.114831,0.114278,0.114278,0.113171,0.112618,0.113171,0.113171,0.113171,0.114001,0.117322,0.118982,0.118152,0.118982,0.122025,0.126176,0.126176,0.122579,0.117322,0.115385,0.115108,0.116491,0.120365,0.119535,0.118152,0.114001,0.112341,0.111511,0.112064,0.113448,0.112064,0.110957,0.109297,0.108467,0.109297,0.110127,0.107914,0.107360,0.108190,0.107360,0.107084,0.111234,0.116215,0.117598,0.123409,0.131433,0.144715,0.147759,0.138074,0.123686,0.110127,0.096015,0.095739,0.096292,0.095185,0.098506,0.098506,0.101273,0.105423,0.106253,0.110127,0.113448,0.116491,0.120365,0.132263,0.142501,0.138628,0.145545,0.162977,0.192031,0.196182
0.113448,0.117598,0.124239,0.141671,0.153569,0.152463,0.158827,0.152186,0.138904,0.125899,0.141395,0.138074,0.140564,0.133647,0.126176,0.130050,0.135861,0.151356,0.167958,0.178196,0.186220,0.191201,0.222745,0.221361,0.206143,0.197842,0.188157,0.178196,0.176259,0.171002,0.177089,0.180133,0.180963,0.190924,0.210293,0.221638,0.227449,0.215274,0.194245,0.169895,0.184837,0.187604,0.178196,0.171555,0.180410,0.183730,0.202546,0.218871,0.210293,0.223852,0.233260,0.235196,0.224682,0.214721,0.213614,0.226342,0.238517,0.257333,0.267017,0.272551,0.256226,0.230769,0.205036,0.239624,0.249032,0.256779,0.256502,0.251799,0.244328,0.230769,0.207526,0.195905,0.232706,0.261206,0.255672,0.234366,0.220808,0.226342,0.230493,0.237133,0.260653,0.296901,0.328722,0.300775,0.258163,0.229662,0.212230,0.199502,0.192308,0.187050,0.194798,0.210017,0.205589,0.211677,0.211400,0.203376,0.197012,0.209740,0.205866,0.192031,0.200609,0.205589,0.207250,0.208080,0.211400,0.215827,0.217764,0.219424,0.220808,0.223852,0.225512,0.227449,0.229662,0.231323,0.234366,0.238517,0.242667,0.245988,0.244328,0.244881,0.247648,0.255672,0.256779,0.260100,0.262313,0.266464,0.269507,0.271168,0.274765,0.279192,0.288600,0.306309,0.317100,0.319590,0.309076,0.299668,0.301882,0.310183,0.333426,0.366353,0.364970,0.357499,0.370504,0.385999,0.387659,0.368567,0.342280,0.333426,0.322358,0.328722,0.347537,0.376868,0.385722,0.388766,0.380465,0.340620,0.320421,0.315163,0.307692,0.301051,0.305202,0.304095,0.289153,0.275595,0.271998,0.268401,0.265080,0.258163,0.249308,0.239624,0.248755,0.248478,0.231599,0.236027,0.236857,0.231599,0.211677,0.217211,0.204483,0.182623,0.168788,0.162977,0.160210,0.160210,0.159380,0.156890,0.155230,0.154123,0.155230,0.156336,0.153293,0.150249,0.145545,0.144715,0.143885,0.141948,0.140564,0.139734,0.140011,0.140011,0.139181,0.139458,0.141948,0.144715,0.145545,0.146929,0.145545,0.145822,0.144438,0.141118,0.137521,0.135584,0.133370,0.129773,0.126729,0.128943,0.130050,0.131710,0.132540,0.133924,0.136967,0.137797,0.140564,0.140564,0.140841,0.139734,0.139181,0.145822,0.142501,0.148589,0.149419,0.140288,0.139458,0.139181,0.135030,0.133094,0.131157,0.135307,0.136137,0.138074,0.150249,0.156060,0.155506,0.157997,0.153016,0.149142,0.145268,0.147482,0.147759,0.145822,0.149696,0.141671,0.134477,0.132540,0.128113,0.125623,0.122302,0.120642,0.117598,0.114278,0.114001,0.113724,0.113724,0.113171,0.112064,0.111511,0.112341,0.111234,0.110957,0.112618,0.115938,0.117598,0.117322,0.115938,0.115385,0.117875,0.120919,0.121749,0.120642,0.118152,0.113724,0.109020,0.113448,0.113171,0.115108,0.114555,0.111787,0.108190,0.108744,0.109020,0.110681,0.108467,0.107084,0.105423,0.104317,0.105977,0.105977,0.104593,0.105977,0.103763,0.102656,0.104870,0.107084,0.110404,0.118152,0.118152,0.124516,0.138628,0.134200,0.119258,0.109020,0.099613,0.095462,0.094632,0.095185,0.095462,0.098229,0.100719,0.104317,0.108744,0.114555,0.119258,0.126729,0.132263,0.139458,0.134477,0.133094,0.144162,0.170172,0.180410,0.194245
0.109574,0.112064,0.112894,0.117045,0.122856,0.129220,0.131433,0.138628,0.136967,0.128113,0.155783,0.147482,0.158550,0.146652,0.136967,0.127836,0.130880,0.140011,0.156060,0.176536,0.192308,0.213060,0.226619,0.201716,0.190371,0.183453,0.175706,0.166021,0.163531,0.175982,0.190647,0.186220,0.172385,0.192584,0.193968,0.186497,0.192861,0.184837,0.181240,0.168511,0.171002,0.165468,0.182346,0.192861,0.221361,0.198395,0.208633,0.242391,0.251799,0.263143,0.269784,0.266740,0.242114,0.231876,0.214721,0.215274,0.251245,0.264250,0.276425,0.284173,0.260100,0.223575,0.197012,0.226065,0.246818,0.248478,0.247095,0.254842,0.263143,0.236303,0.201992,0.189541,0.216104,0.245988,0.270891,0.271721,0.234643,0.210570,0.216104,0.230493,0.262867,0.281129,0.283619,0.285279,0.254842,0.231046,0.211677,0.198118,0.188434,0.184283,0.183177,0.193138,0.201992,0.200885,0.215551,0.219148,0.210293,0.205866,0.190647,0.189264,0.194798,0.204759,0.202546,0.202822,0.206696,0.213060,0.216657,0.216934,0.215827,0.221915,0.223852,0.226342,0.226342,0.227449,0.230493,0.233536,0.237410,0.241561,0.246818,0.247648,0.248478,0.255672,0.259546,0.262867,0.266187,0.268677,0.270061,0.274211,0.277532,0.282512,0.287770,0.297454,0.302988,0.304649,0.297178,0.291367,0.291090,0.298284,0.330105,0.357499,0.357775,0.343387,0.346154,0.369397,0.373271,0.359436,0.344494,0.325678,0.318760,0.324018,0.341727,0.366076,0.383232,0.385722,0.379358,0.344494,0.309353,0.295241,0.293581,0.294964,0.292750,0.292474,0.291367,0.273381,0.265910,0.263420,0.258439,0.252352,0.247095,0.239347,0.230216,0.227172,0.230769,0.251245,0.260100,0.250138,0.237133,0.233260,0.206973,0.180133,0.166851,0.161594,0.158827,0.158273,0.157997,0.155506,0.154676,0.153293,0.152463,0.151079,0.150249,0.148589,0.147759,0.146099,0.143331,0.141671,0.141671,0.141671,0.141671,0.141948,0.144715,0.144438,0.149142,0.154953,0.157720,0.156890,0.157167,0.154400,0.151633,0.147482,0.141395,0.137244,0.133924,0.131157,0.128943,0.126176,0.127283,0.130603,0.131157,0.131710,0.135307,0.132817,0.133647,0.135030,0.134754,0.134200,0.133094,0.133924,0.136137,0.144162,0.134200,0.131433,0.131157,0.130880,0.131710,0.130327,0.132540,0.132263,0.134754,0.128943,0.131710,0.137797,0.146375,0.146652,0.148312,0.144162,0.141118,0.137521,0.134200,0.132817,0.131987,0.130327,0.126729,0.125069,0.122302,0.120089,0.117598,0.116491,0.114555,0.113448,0.112618,0.112618,0.111787,0.112064,0.112064,0.110681,0.110127,0.109574,0.110127,0.112341,0.112618,0.114831,0.115938,0.115385,0.113171,0.112618,0.114278,0.116491,0.118705,0.118428,0.115385,0.109574,0.105700,0.106530,0.107360,0.109851,0.108467,0.105700,0.106530,0.109020,0.110957,0.109297,0.110127,0.108744,0.103486,0.101550,0.103486,0.102933,0.101550,0.100443,0.099613,0.100166,0.101826,0.104317,0.109574,0.111511,0.114278,0.115385,0.118705,0.113171,0.108190,0.102380,0.097952,0.094632,0.094079,0.095462,0.098229,0.105700,0.111234,0.113448,0.119535,0.117598,0.116768,0.123962,0.118982,0.123409,0.128113,0.138628,0.150802,0.167405,0.187050
0.114831,0.115385,0.116215,0.118152,0.115385,0.114831,0.115938,0.117045,0.120919,0.146929,0.167405,0.158273,0.164914,0.159934,0.151356,0.131157,0.129773,0.136414,0.151079,0.158827,0.179856,0.209463,0.202546,0.178196,0.187880,0.168788,0.162701,0.157720,0.166851,0.183177,0.183730,0.173492,0.167128,0.183177,0.177919,0.175429,0.171832,0.169341,0.173492,0.164361,0.163531,0.175706,0.196735,0.211677,0.226342,0.206973,0.197842,0.225512,0.248755,0.250968,0.245434,0.242391,0.238794,0.235750,0.213060,0.190647,0.213060,0.227449,0.232983,0.234920,0.230216,0.214721,0.194798,0.210017,0.208633,0.208910,0.209740,0.216104,0.218041,0.214444,0.192584,0.185113,0.198118,0.219424,0.225789,0.247648,0.226619,0.203929,0.203376,0.217488,0.232429,0.238794,0.252629,0.247648,0.230769,0.218871,0.213337,0.206419,0.202269,0.188434,0.184837,0.184007,0.195075,0.189817,0.199779,0.216381,0.206696,0.191478,0.181516,0.188711,0.193968,0.197288,0.196182,0.200885,0.203376,0.205313,0.210847,0.216934,0.221361,0.222468,0.221915,0.220808,0.223575,0.226342,0.228556,0.228002,0.228279,0.236303,0.257609,0.257886,0.255949,0.258439,0.265080,0.266187,0.267847,0.269507,0.270891,0.273105,0.276978,0.285279,0.291090,0.295517,0.300498,0.301605,0.284173,0.284173,0.283619,0.289983,0.307139,0.337023,0.356945,0.335086,0.331765,0.330659,0.343940,0.349198,0.326231,0.309353,0.310736,0.318207,0.338960,0.372717,0.380465,0.375208,0.362756,0.346431,0.304372,0.288046,0.285833,0.287493,0.285279,0.280022,0.278085,0.275872,0.262867,0.258993,0.254566,0.249308,0.244051,0.237410,0.226895,0.211400,0.214721,0.224682,0.237133,0.236303,0.228279,0.211400,0.193968,0.170172,0.160764,0.158273,0.156890,0.156613,0.156060,0.154953,0.153846,0.153293,0.152739,0.152186,0.153293,0.152186,0.149972,0.145268,0.144162,0.144992,0.144162,0.145822,0.143885,0.145545,0.147205,0.151633,0.158550,0.164914,0.167681,0.166851,0.162424,0.157167,0.153016,0.150526,0.146375,0.140288,0.134754,0.133094,0.131433,0.129773,0.125069,0.127559,0.127836,0.129496,0.130050,0.129496,0.130880,0.131433,0.130603,0.129773,0.129220,0.129773,0.129773,0.127559,0.127836,0.126453,0.124792,0.124516,0.125346,0.125623,0.128666,0.133370,0.141395,0.148312,0.133647,0.126453,0.128390,0.133924,0.135584,0.138351,0.140011,0.149696,0.144438,0.134200,0.130603,0.124239,0.121749,0.120642,0.119258,0.115661,0.115108,0.114278,0.112618,0.111787,0.111511,0.111511,0.111511,0.111234,0.110404,0.110127,0.110127,0.109020,0.108744,0.109574,0.111234,0.112064,0.113448,0.112064,0.110681,0.111787,0.110681,0.110404,0.110957,0.110957,0.106807,0.104040,0.103210,0.102933,0.103210,0.102656,0.102933,0.102380,0.102933,0.106530,0.106530,0.106253,0.109297,0.107914,0.105423,0.100719,0.101550,0.103210,0.102933,0.100166,0.099613,0.096569,0.097676,0.099613,0.102656,0.105423,0.109020,0.104593,0.105977,0.103210,0.105147,0.099613,0.096292,0.094632,0.093802,0.092695,0.094355,0.103486,0.102380,0.103763,0.116491,0.109297,0.109297,0.113724,0.126176,0.136691,0.131433,0.135861,0.140564,0.151633,0.164914
